ply
format ascii 1.0
comment PCL generated
element vertex 1616
property float x
property float y
property float z
element camera 0
property float view_px
property float view_py
property float view_pz
property float x_axisx
property float x_axisy
property float x_axisz
property float y_axisx
property float y_axisy
property float y_axisz
property float z_axisx
property float z_axisy
property float z_axisz
property float focal
property float scalex
property float scaley
property float centerx
property float centery
property int viewportx
property int viewporty
property float k1
property float k2
end_header
2.2637899 -1.57572 1.95327
2.30089 -1.61611 1.95512
2.66294 1.5089099 0.37143499
4.39116 0.93445498 1.22794
3.3067801 -1.24345 0.85771501
3.2964799 -1.29519 0.84212899
5.7938399 -0.152968 -1.5976501
4.74753 2.63818 3.25402
4.74542 2.5920899 3.2239499
6.27072 -4.37676 -1.52426
6.2844701 -4.37327 -1.57749
2.6600699 1.45081 0.31222701
5.3534598 -1.22707 -0.45673901
5.3245401 -1.19077 -0.42703101
3.99142 0.205083 0.591456
3.1793799 0.334622 1.00146
3.1773701 0.290672 1.03474
4.33395 0.90318501 1.20564
4.0015602 0.24682 0.645585
8.3671598 -3.52478 0.59781802
8.3132696 -3.5138299 0.59220099
2.8099501 1.95234 1.4871
2.81037 2.00086 1.46057
2.6772001 1.50612 0.31239101
3.6166899 0.97449303 1.25053
4.7354298 -0.316006 0.266381
4.7755799 -0.31726301 0.227715
3.9934101 0.315685 0.70643598
3.93625 0.26851401 0.67336702
4.1114302 0.46966901 0.82051897
4.0595498 0.470355 0.841694
3.9881101 0.37802199 0.76709598
5.0522499 -1.36098 -0.47833601
5.0405898 -1.30968 -0.49841601
4.6579399 -0.83801502 -0.0040536602
3.9295399 0.330172 0.73881
5.4179001 -1.5061001 -0.55509502
5.3688402 -1.49951 -0.52766299
5.60045 -3.1770401 -1.6415
5.7501101 -0.60972601 -1.81569
4.4002199 0.25768399 0.69086498
2.63131 1.59999 0.40774
3.6486101 0.435866 0.76814997
3.6944001 0.434926 0.80221701
3.33921 0.399077 -0.89379299
3.53722 0.25198901 0.65802699
5.8667302 -3.70104 -1.74985
5.83109 -3.6868701 -1.7922
5.3390799 -2.3522501 -1.1700799
5.3212399 -2.3009701 -1.15184
2.6106999 1.67926 0.453325
5.88376 -0.84659398 -1.94204
5.8393898 -0.880036 -1.95614
2.5894599 1.76344 0.493413
4.43472 1.83899 1.80565
2.8487301 1.79233 1.9881001
2.8527 1.84585 1.9671299
6.0125799 -1.10269 -2.18998
5.9801798 -1.13612 -2.2239499
5.39044 -1.09084 -0.449442
5.3420601 -1.10452 -0.42118901
2.6307099 1.67423 0.38824299
4.3650699 -0.44040301 0.143126
4.32901 -0.48517099 0.137823
4.6364102 -0.40544599 0.169084
3.5444701 1.4831899 1.70644
3.5099599 1.47659 1.75229
2.55985 1.85353 0.52506298
3.5229599 0.252545 -0.89156699
3.5300801 0.30017301 -0.85962403
2.62113 1.7484601 0.43923599
2.5688901 1.77702 0.55294102
3.9939201 0.85787201 1.1486501
3.9755099 0.82951701 1.1015
3.9284699 0.90024298 1.24542
3.96068 0.93833297 1.27518
2.5578401 1.92426 0.58802998
2.5431199 1.86257 0.59449798
4.4582601 0.348737 0.77057701
5.54603 1.1835099 1.76027
5.5774598 1.1583101 1.71821
2.6930201 1.6996599 0.42491499
3.58478 0.31005701 -0.84002
3.32184 -1.29795 0.58643597
3.32198 -1.3545901 0.60046202
3.4607501 0.603046 -0.620673
2.6633401 1.92466 0.66132301
3.4591501 0.12569299 -1.0977401
2.80867 1.76027 0.56344199
3.6393001 1.2029099 1.45783
4.0992699 -0.108404 0.40588301
4.0961299 -0.059663199 0.43868601
2.52355 1.87448 0.663086
2.51667 1.94778 0.63459897
2.5434799 1.79343 0.61534101
2.4995899 2.0280299 0.67962599
5.7764301 -1.77835 -1.11238
2.74894 1.73145 0.45359001
3.52297 0.213211 -0.95468402
2.6395199 2.0539401 0.95867097
2.58337 2.0720501 0.95567203
2.54128 2.00349 0.63095301
3.31636 2.1247799 2.1471901
3.3180001 2.0806201 2.1865399
2.92134 1.61089 0.52930701
4.27354 0.97209603 1.2093
4.3291402 0.99069202 1.2000901
2.46629 2.11642 0.80153298
2.6436999 2.003 0.70385498
3.5846601 1.0828201 1.36409
3.63587 1.27294 1.53274
3.6162601 1.16777 1.51639
2.6075001 1.82629 0.48547199
2.4885499 2.1009099 0.73321098
3.57954 1.15567 1.4252599
4.5788898 0.34865299 0.76741803
2.44805 2.1287301 0.87752903
2.63152 2.09973 0.76239401
5.4438901 -0.43144801 -0.074506998
5.7840099 -0.89264101 -1.97719
4.0117202 0.73949498 1.00615
4.2069898 0.35812601 0.73376697
4.2636399 0.33992201 0.72112697
2.3677001 2.2228501 0.988258
4.5387502 0.028452 0.413371
4.48283 0.0040924801 0.41299599
3.0469601 0.463458 1.12887
2.96257 1.08087 1.57662
2.95614 1.13789 1.59769
2.3554699 2.2934101 1.0480601
6.2792401 -4.0851402 -1.32787
6.2258301 -4.0706701 -1.30172
3.78953 0.91377997 1.3401999
2.2925 2.3954401 1.15631
3.8159399 1.02147 1.47174
4.0612602 0.88022 1.16438
4.6746302 -0.653943 0.0095631303
4.5209699 0.358749 0.80261397
8.1103802 -3.32692 0.52631599
8.0648203 -3.35181 0.492744
3.7107 0.93839598 1.38938
3.8076601 0.95870501 1.40892
4.7175102 0.72031701 1.1016999
4.72087 0.76296598 1.14678
2.92558 -2.3889799 0.335466
2.9287701 -2.32706 0.33092201
3.8690701 -1.6863199 0.0141795
3.91326 -1.65198 0.041606098
6.0069499 -1.26352 -2.6148901
4.5237198 2.08881 2.12694
4.1305499 1.15418 1.6390001
3.45592 -1.45767 0.67624098
3.50685 -1.49281 0.68519902
4.5314202 2.0417199 2.2172999
4.5489202 -0.34894499 0.24214301
4.4477201 2.0489399 2.224
5.71875 -0.22774 -1.63063
5.7104702 -0.16654401 -1.6419899
4.1821799 1.24948 1.67781
6.1958799 -1.90165 -2.5712399
3.7246001 1.19279 1.52724
4.8703799 0.67458498 0.86879301
4.1279702 0.35110801 0.66730702
4.6605701 -1.04128 -0.237645
4.7171302 -1.0609601 -0.25723401
4.4809299 0.038351301 0.46587601
3.81551 1.19722 1.5892299
4.5188398 0.64850003 1.00395
3.89779 -1.68915 -0.0420838
5.61693 1.77072 2.1440101
3.58933 -1.4779 0.68298501
3.5996201 -1.44174 0.73404002
2.8647299 1.63425 0.86709601
4.8766699 -0.125055 0.43246099
4.0251098 -0.50635099 0.043017399
4.0362201 -0.47702801 0.098236099
4.2095299 0.55168599 0.87684602
4.2126698 0.59280199 0.92528701
8.5595503 -3.46139 0.88835901
8.5739803 -3.4438 0.82889599
4.1108298 1.22313 1.66838
4.26548 0.390387 0.78028202
4.20614 0.413445 0.78390998
3.7950101 1.2893699 1.62472
4.9425302 -0.63126498 0.0209994
4.4517102 0.96510798 1.24396
4.5075302 0.94114101 1.22409
4.4484701 0.57280099 0.85696697
4.24369 -0.087341599 0.400543
2.79319 2.0202701 1.02628
5.58391 2.17693 2.6210999
5.6129799 2.1695399 2.6777101
4.6760602 -0.229546 0.342987
4.73423 -0.202574 0.34156901
3.96596 -0.50043201 0.067129202
2.33424 2.3673699 1.09668
3.08181 1.56373 0.728706
3.7683301 1.1876 1.63872
4.2066398 0.82356799 1.08868
3.8533299 0.86645401 1.09208
2.39889 -2.2095399 2.0272501
2.7699201 1.7976 2.01088
4.9320798 0.625512 0.82778299
4.4549799 -0.417712 0.083002999
4.45012 -0.47461599 0.052265201
3.7525599 1.27378 1.67784
2.2853601 -1.87455 2.1056099
3.55862 0.62414598 0.82181501
3.25737 0.305069 -0.28424799
3.2166901 0.26139101 -0.30998099
2.30477 -2.1044099 2.14572
4.6062498 -0.361828 0.206677
2.42063 2.2565999 1.01273
4.6165199 -0.084904902 0.44663799
4.5584002 -0.113729 0.45135599
4.51893 2.3311901 2.2888501
4.5028901 2.3219299 2.22646
4.73773 -0.36988199 0.204886
2.2135999 -1.7037801 2.0936799
3.4103501 0.78870898 0.74853998
5.5117798 -1.95163 -1.13939
5.5756001 -1.9652801 -1.13973
4.4275599 -0.753295 -0.067182504
4.4240098 -0.81375098 -0.091811202
2.78619 0.94573998 1.51749
4.31218 2.27088 2.18133
4.5627799 1.86317 1.88633
3.43959 0.78350401 0.68305802
3.16728 0.213671 0.97546399
3.1526 0.15593401 0.947963
4.6315298 0.88015002 1.18273
5.29985 -0.95407802 -0.24419101
5.2567401 -0.99411398 -0.273314
3.2760201 -1.19087 0.83324599
4.57691 0.57764298 0.936975
3.6684101 1.26389 1.64492
3.32601 -4.6027098 -2.5524001
3.3810799 0.321652 -0.26773301
4.6013498 -1.86505 -0.98111498
8.0287304 -3.3968301 0.43690401
3.9758201 -1.54988 -0.036857098
4.0093799 -1.49635 -0.017870201
5.7251601 -0.29326001 -1.63538
4.3911901 -0.86766398 -0.125166
4.4541702 -0.88120502 -0.110601
4.6164198 -0.25249699 0.32034099
4.6160498 -0.197622 0.35714
4.33391 0.84867901 1.16123
4.32723 0.80180502 1.1151201
4.3309002 1.33305 1.55837
4.3122902 1.3838 1.59646
4.3456302 0.353605 0.83501202
4.3399501 0.32907501 0.77380401
7.0087299 -5.0306501 -1.6192501
4.5336499 0.123278 0.62398702
4.3478198 2.5564699 2.4454
3.4351599 -4.5538101 -2.5180199
4.6096902 -0.66960901 0.040339701
4.6371999 -0.52987099 0.090346798
5.0095 -0.95619601 -0.185332
4.4595599 0.39627901 0.81696898
3.9892199 0.81030297 1.19497
3.33393 0.47294 -0.33841601
4.36727 -0.30741999 0.233694
4.3380299 -0.24812201 0.24175701
4.3962402 0.55008399 0.91305101
4.3940902 0.50922602 0.86032802
4.4468498 1.06942 1.34294
4.3910799 1.04559 1.31504
4.39711 0.14902499 0.74151498
4.5697899 0.90827298 1.2057
4.7065401 -0.167694 0.39144701
4.6928 0.90057403 1.21462
4.45785 0.62599301 0.98135501
4.0970101 -0.144169 0.33836299
5.5310898 -1.89442 -1.10905
5.5974202 -1.90245 -1.10475
4.8566799 -0.532978 0.073830299
5.0012798 -0.65713298 0.00130425
4.83955 -0.094670601 0.47947001
5.26334 -2.3323901 -1.1386499
3.6457701 -1.40782 -0.63771701
3.6059201 -1.45753 -0.65916699
3.31633 1.3454 1.19029
4.5787401 0.622706 0.98750299
5.5398502 1.07611 1.67255
5.5745101 1.03773 1.62938
5.2464499 -1.92035 -0.87887198
4.33778 0.513399 0.89710999
3.28332 0.25651401 -0.32718399
3.3239701 0.30231699 -0.299036
5.1793199 -1.9009399 -0.889938
5.1867499 -1.96638 -0.87557399
5.5873799 -1.5520101 -0.89277798
4.3323002 0.68372601 1.02767
4.2745099 0.66199201 1.00051
4.2225399 2.6362 2.51316
4.5370998 0.061793301 0.49620301
4.4875102 0.050482798 0.54063302
4.5075898 0.886823 1.17917
4.5176902 0.48937899 0.87480998
3.4284899 -4.6090798 -2.6095901
4.0764699 0.208803 0.617477
4.7018499 0.385809 0.82986599
4.70223 0.441735 0.86806601
4.8860798 -0.77036399 -0.108542
4.9210501 -1.09426 -0.32800099
2.5415399 -0.221764 0.68421203
2.48997 -0.25275001 0.653063
4.1605301 -0.196098 0.332486
4.15907 -0.238787 0.27988601
4.0679002 -1.50723 -0.050255999
4.9372702 -0.24437501 0.276627
4.9029899 -0.29002699 0.240108
4.3395901 -0.206351 0.295129
4.94491 -0.79892898 -0.126406
3.3819699 0.27518001 -0.32133999
4.9217601 -1.20148 -0.412393
4.8687601 -0.334705 0.202262
4.6746602 -1.86773 -0.99520499
4.7989101 -1.62067 -0.802598
4.85776 -1.59192 -0.784908
3.94855 1.14078 1.4691499
3.7216101 -0.563775 -0.91356999
3.7781301 -0.60129499 -0.91574198
5.24547 -2.00037 -0.88687402
5.3042598 -2.02969 -0.90420198
4.47717 0.0707957 0.620866
4.4188299 0.084392697 0.65297502
5.2631202 -2.2850001 -1.08988
4.85811 -1.64248 -0.830396
4.4565101 0.469607 0.84795499
4.4219999 0.039731801 0.595972
4.4756999 0.13437 0.65788198
4.0798502 0.0042514401 0.45550099
3.5708599 -2.96293 -3.1680801
5.2183099 -1.87076 -0.83937901
4.9807801 -1.11413 -0.358922
5.0399098 -1.1412801 -0.379298
4.5790901 0.50993299 0.90178198
4.6381602 0.49246699 0.87250698
4.7975402 -0.56256598 0.056701899
4.5423799 0.083540201 0.56409001
3.5952001 -2.8845999 -3.2627201
4.1658401 -0.39530799 0.114263
4.1072698 -0.41791299 0.087540098
4.5801001 0.453051 0.856861
4.5795498 0.40123001 0.81245601
3.62957 -0.63962102 -0.96421999
3.3816099 1.36393 0.99716002
3.5436699 1.49028 1.85753
3.5422101 1.55873 1.85692
4.0343199 1.16407 1.3953201
4.2132502 0.64374697 0.971102
4.7973099 -0.51078498 0.105315
4.3789902 -0.98881501 -0.153366
4.4147701 -0.941369 -0.119223
4.1577501 -0.12625501 0.37492099
4.1503801 0.51247901 0.85723901
5.2462101 -1.04038 -0.220671
5.2052999 -1.07288 -0.26504701
4.8348899 -0.28992501 0.248556
4.0109801 -0.59523302 0.0206163
4.0794401 -0.59819001 0.023364499
4.42414 -0.67924201 -0.0364279
4.9811201 -1.2316 -0.429452
4.9811902 -1.17647 -0.388598
4.5036302 -0.40989399 0.146172
3.91821 0.25116301 0.609424
5.2045798 -0.46853301 -0.0348331
5.1389399 -0.480638 -0.0509625
3.8943801 -1.49719 0.070787698
3.8970301 -1.4626499 0.13012999
5.0407801 -1.09926 -0.318207
4.7373199 -0.59011602 0.031199699
4.74403 -0.114845 0.41448301
4.16575 -0.332553 0.1424
3.6782999 1.07131 1.42205
4.6732602 -0.87316602 -0.0611821
4.2740998 0.61028397 0.95511001
4.0216999 1.03035 1.33004
4.0215302 0.97188503 1.29371
4.5611601 -1.92641 -0.9885
4.64082 0.528332 0.93122399
4.6754999 -0.113853 0.421433
4.4937601 -0.35708001 0.29651901
4.87709 -0.22832499 0.313501
4.3561602 -1.60227 -0.613424
4.2902198 -1.59746 -0.59396303
3.5883701 1.27712 1.58393
4.5192399 0.42840201 0.83590001
4.3994999 1.64447 1.65118
4.0692 -1.46385 0.0034083801
4.0100598 -1.45143 0.0367397
4.55619 -0.22041801 0.33065599
5.18641 -2.03125 -0.90480697
4.9437199 -0.88843298 -0.199265
4.8841801 -0.91202599 -0.225086
4.88622 -0.97601497 -0.26376399
4.8262 -0.95493603 -0.2369
4.3977399 -1.26928 -0.154286
4.3978801 -1.21211 -0.11548
5.0050101 -0.62674898 0.063254602
4.6412001 0.42270601 0.84182203
4.3966098 0.60158902 0.95913798
4.6346698 -0.72017598 0.000372207
2.34935 -1.46286 1.82402
5.53405 -1.61974 -0.88804698
5.5595999 -1.67158 -0.92598498
5.2186198 -1.7634799 -0.75103998
5.6163802 -1.82384 -1.0624501
5.5499301 -1.81016 -1.0758801
5.0930901 -1.4127899 -0.50032401
5.13412 -1.4631 -0.52420902
3.7430501 0.54768997 0.86071002
6.2216802 -4.3962002 -1.66686
6.2116799 -4.32797 -1.66107
4.7992001 -1.6636 -0.85993898
4.8262701 0.16743299 0.54628098
4.91787 -0.573443 0.078142896
3.8716199 1.11019 1.5487601
3.9951301 0.89367998 1.20797
4.7983298 -1.57511 -0.75037599
3.9031999 1.03431 1.48316
5.9781399 -3.85378 -1.67075
5.9471302 -3.8097799 -1.71447
4.4196301 0.0110308 0.44822401
4.3910999 0.99084902 1.26838
4.98102 -1.28795 -0.47021601
4.1993399 -0.63384199 -0.049792301
4.19875 -0.692334 -0.087149799
4.2267599 -0.032797199 0.44001901
5.21877 -1.81007 -0.80558401
4.9375701 -0.32943401 0.194079
4.9807501 -1.3499399 -0.50163603
4.8954701 -0.38791701 0.166409
4.5574002 -0.345893 0.32213399
4.6159601 -0.141828 0.39897099
4.82687 0.102955 0.50554901
4.7666602 0.069601901 0.49573201
4.3744001 1.79738 1.9109401
4.3401899 1.84035 1.8682899
4.9784698 -0.187078 0.16467001
4.2206402 -0.167006 0.351946
4.3966899 0.65560699 1.00322
4.3356199 0.63010001 0.98179698
4.2743101 0.45591199 0.80195898
4.8098202 0.90555203 1.26135
4.7659402 0.85937202 1.23335
4.9685402 -1.47439 -0.63364899
4.9682298 -1.52873 -0.677127
4.3673902 -0.72897798 -0.0420403
5.0187302 -1.4086 -0.51647103
3.9284699 0.84600401 1.20038
3.86782 0.87777603 1.21294
5.0462499 -0.187206 0.202693
5.1585102 -1.83236 -0.83380598
4.5072098 0.983693 1.2818
4.9456 -0.94768798 -0.240762
4.57587 -3.0045099 -0.73263299
4.57587 -3.0045099 -0.73263299
4.9462199 -1.4220099 -0.50678003
4.90979 -1.457 -0.55489802
4.8220401 -0.98097998 -0.30370101
4.8262 -1.04417 -0.2744
4.0443201 -0.63825101 -0.023122801
4.33568 0.57754302 0.93495798
4.5953002 1.26972 1.48268
4.5349998 1.24225 1.46066
4.4161 -1.82517 -0.899575
4.4496899 -1.79233 -0.84790897
4.3670802 0.205301 0.76996899
5.1205201 -1.50801 -0.594868
5.1634998 -1.54298 -0.637393
4.6301699 1.15035 1.42882
4.5943699 1.19322 1.47078
5.45365 -1.73484 -0.99073398
5.5209198 -1.74482 -1.00684
4.46702 1.25552 1.45131
4.0727501 1.06173 1.26449
4.1321502 1.02593 1.2558399
2.34798 -1.79689 1.9814
4.50776 1.04404 1.31982
4.6375699 -3.6747999 -1.36659
4.6619301 -0.99189198 -0.188126
4.2210398 -0.22223 0.308249
4.2102699 0.496986 0.82454097
5.30481 -1.9648401 -0.87621301
4.7014699 0.50013101 0.91062897
4.7665901 0.23740201 0.719661
4.8517799 -1.11436 -0.29857799
4.1806102 -2.8414099 -2.46052
5.0439801 -2.0977499 -1.13425
4.87609 -0.202319 0.398619
3.8504701 0.25919899 0.648206
3.8503399 0.31240901 0.693968
2.8642499 -2.6378801 1.8232
2.81675 -2.6628001 1.86848
5.2185202 -1.70631 -0.70964497
4.21281 0.69786501 1.01586
4.5094399 1.1189899 1.3505599
4.51057 1.1727901 1.39574
3.74301 0.48467299 0.82823199
4.9474401 -0.76081002 -0.067361899
4.76753 -1.03528 -0.31215701
4.4152899 -0.56899101 -0.031281099
4.4774799 -0.54169601 -0.0129316
4.6318102 0.98585099 1.2817
4.0903101 -0.47412699 0.0487446
4.82827 -0.80887002 -0.120184
4.51894 -1.2133 -0.23306499
4.9208398 -1.26651 -0.440018
4.5770502 -0.50256598 0.117428
5.1275401 -2.0680399 -0.91695601
4.1382899 -0.608841 -0.024975
5.0868201 -0.24097501 0.096859597
4.5700798 1.08569 1.337
6.1581502 -4.2722101 -1.76948
5.4856501 -1.81192 -1.04686
4.6743302 -0.26716799 0.250009
4.6454601 0.55256701 0.99733299
4.4274302 0.0155178 0.528265
4.1065402 -0.34921199 0.103935
3.8678 0.930547 1.26526
5.0006099 -0.70077997 -0.054267202
4.3934999 0.46016601 0.80660802
4.3328099 0.49153 0.82500398
4.8880401 -1.0346299 -0.30902299
4.6935 0.96786201 1.2404799
4.6297998 1.0878 1.39565
4.6690302 -1.68029 -0.80089301
4.7384 -1.66611 -0.80068499
4.7810302 -1.15484 -0.21120401
5.1744699 -2.25772 -1.11781
4.5710802 -0.42442101 0.188933
3.7948999 1.36052 1.83893
4.4282198 -0.32518101 0.20187899
8.1771498 -3.5548999 0.44979799
4.5694299 1.12861 1.3989
4.8784199 -1.35585 -0.409563
4.8250499 -1.3686399 -0.36430401
4.1307602 -1.49279 -0.020134499
4.66714 -1.67216 -0.695728
4.0343099 -0.148771 0.29200199
4.5701499 1.00955 1.30836
5.4505701 -2.9412501 -1.5656199
4.5988798 0.066155702 0.42005599
4.8571801 -1.75358 -0.97801
5.4472299 -2.97664 -1.63225
3.0869999 2.3666201 2.5269001
4.2602501 1.6281101 1.77668
4.3063698 1.66837 1.81355
3.5446999 -1.2425801 -0.58263898
3.4849501 -1.26614 -0.61398703
4.3936 1.0954601 1.38287
5.5718699 -3.0316899 -1.57925
5.39533 -1.14615 -0.494499
5.03478 -0.486801 0.12781499
4.6312299 1.02702 1.34685
4.6922698 0.99053198 1.33887
3.6530001 -0.57038099 -0.89031702
3.5868599 -0.55398703 -0.91231197
5.5813799 -2.35939 -1.37198
4.4907999 -0.69542402 0.015743099
3.86585 1.2476799 1.5969501
3.68297 0.505593 0.86144501
5.5051198 -1.84785 -0.987903
8.1079302 -3.4067199 0.47621301
4.75317 -1.73278 -0.91357702
4.71209 -1.70056 -0.86414701
5.3813701 -2.8601301 -1.57585
3.9676099 -0.457064 0.124676
2.64748 -2.61396 1.83803
2.66064 -2.56159 1.79023
3.76263 2.9369099 3.0241899
3.7951801 2.9754 2.97261
3.8303399 0.45610201 0.81860602
5.1745701 -1.6513 -0.69362903
3.0802 2.51477 2.57131
5.00879 -0.23703501 0.28403699
4.8280802 -1.70567 -0.932347
5.5082998 -3.0246699 -1.63714
5.10145 -1.14829 -0.304829
4.1311102 0.58685899 0.90707397
4.1305299 0.64163899 0.95440203
4.60672 -0.22954001 0.25232801
4.5711398 1.2203 1.38687
4.61584 1.2716 1.41189
4.8002501 -1.01433 -0.204331
3.76229 0.42746001 0.77776802
4.7029099 0.59783399 1.00697
4.2817898 0.50960898 0.94321102
4.4959402 1.91796 2.0067301
3.95381 -4.0217099 -2.4233899
3.8220301 2.18752 2.3320401
4.2058101 0.86614197 1.15525
4.1448998 0.90422302 1.16685
4.9167199 -1.57689 -0.74496102
4.6971598 0.311353 0.79885101
4.7570701 0.33703101 0.83126003
3.48264 1.22901 1.0333
5.2787499 -1.80408 -0.75716001
4.4065499 -0.53262103 0.0584847
4.6073198 -1.73751 -0.78551197
4.06775 0.62724501 0.92037302
5.9417801 -1.19403 -2.2019999
4.2649202 0.79749799 1.18801
4.2651701 0.85828698 1.22824
5.0293198 -1.51486 -0.63971502
5.4651899 -1.61351 -0.86461699
5.0811 -0.23337901 0.27466899
4.0541701 -4.1928 -2.1424501
8.1384802 -3.1491799 0.73190397
3.9489501 -0.38938001 0.14522301
4.6877699 -0.91832602 -0.118156
3.9477501 -1.41737 0.0548282
5.1830902 -1.50702 -0.556692
3.9558599 -1.42009 0.140376
4.3466902 -0.82121003 -0.0427204
4.3093801 -0.84561902 -0.101003
4.7722402 -0.0262849 0.47830299
4.8380899 -0.023460301 0.51056498
4.5366101 -1.60682 -0.706119
5.0746398 -1.58814 -0.74615097
5.03058 -1.53044 -0.73521203
5.0013399 -3.92959 -2.0943999
4.1669598 -0.078941204 0.435967
4.7865601 -3.7604699 -1.73614
4.6736398 -0.039186101 0.453493
3.1851399 0.054268401 0.62112302
3.2579999 0.055930201 0.63056999
3.12027 0.50580901 1.10058
3.19087 0.52595001 1.10383
4.95051 -3.9266701 -1.9508801
4.9983201 -4.0128298 -2.21614
6.79916 -5.06776 -1.53253
5.0091701 -0.81562299 -0.066654697
5.8719602 -2.1424899 -1.92219
5.80761 -2.12463 -1.95328
3.5681 -0.169789 -0.75761002
3.5004599 -0.173629 -0.72867399
4.4938302 -1.79469 -0.95801902
4.4572301 1.7444201 1.38934
4.33002 -1.19215 -0.166299
4.3555398 -1.14542 -0.115284
6.0849099 -3.96315 -1.40499
6.0606799 -3.89539 -1.38889
4.7639799 0.30785701 0.75225401
4.90837 -3.9823799 -2.085
4.8403001 -3.70367 -1.71776
4.9643698 -3.9659901 -2.1500499
4.90697 -4.0297599 -2.1440401
4.4414802 1.177 1.42154
6.9025798 -5.0590601 -1.62217
4.1426301 0.76032102 0.98928398
4.2069201 0.77591699 1.02247
5.12152 -1.3727601 -0.44493401
5.7694101 -5.3686099 -3.0234001
4.8690801 -3.8168399 -1.8738199
5.65027 -5.4583998 -3.0313201
4.7130399 -1.60747 -0.56530797
4.6468 -1.57647 -0.55345899
4.11797 0.81184202 1.05708
3.1332901 0.112999 0.82007301
3.06251 0.106476 0.79885203
5.80825 -5.4214802 -3.0536301
2.9507401 -2.2713101 0.374679
5.0426898 -4.10778 -2.2176299
3.8289199 2.24158 2.4095299
5.9980602 -3.89972 -1.7257
3.8381 1.48342 1.81885
5.0001101 -4.1743598 -2.21943
6.4951701 -5.4470901 -2.2049501
4.8955498 -3.6386199 -1.8177201
5.51406 -1.53887 -0.89208102
5.0037999 -0.32932299 0.159949
4.9476399 -3.9667001 -2.01596
3.2133 0.104918 0.69995201
3.2867501 0.10704 0.68725902
4.8979702 -3.6229501 -1.82757
4.8942399 0.158262 0.58639997
4.8583002 -3.97401 -1.93009
5.1328702 -1.58946 -0.69059902
5.2322698 -1.53769 -0.60373503
4.8531799 -4.0039501 -2.0141001
4.1563001 1.94529 2.06903
5.0014901 0.34603301 0.61660999
3.7846899 1.43959 1.94115
5.8441501 -2.01636 -1.97575
5.7734499 -1.99367 -1.98427
4.08603 0.69059199 0.98926198
4.9232602 -4.2410102 -2.3043201
4.9232602 -4.2410102 -2.3043201
4.9390402 -4.0621099 -2.22138
4.8963199 0.0840813 0.55256099
3.91483 1.72463 1.9579901
8.4811201 -3.3884699 0.81480998
8.4104004 -3.40641 0.83152598
4.6407499 -1.42527 -0.26095399
4.5659499 -1.42698 -0.258376
4.5144901 -0.84449703 -0.237058
5.8861899 -1.9527 -1.96913
5.9158101 -1.99753 -2.0212901
4.83673 -4.00772 -2.1962299
5.8959098 -0.67175001 -1.97112
5.8612599 -0.72946697 -1.9382499
4.87216 -4.0563698 -2.2653899
4.8408298 0.16481701 0.73014599
5.7377501 -5.3629699 -2.9630001
4.1058798 0.93516803 1.2230099
4.09584 -0.23991001 0.231527
8.0748997 -3.1761601 0.70243901
3.99102 1.10306 1.38886
6.5830598 -5.4671998 -2.2299199
8.3403797 -3.5868001 0.50043499
8.4005499 -3.5536101 0.53091699
3.5206101 0.47432601 -0.906753
5.7285299 -5.4334998 -3.0467801
5.9423699 -2.26302 -1.97497
5.90728 -2.1974199 -1.96356
5.4818101 -1.5047801 -0.594832
3.6631501 2.1301 2.2708399
3.2185199 -1.02775 0.81192797
3.18735 -1.0942 0.79495299
5.21172 -1.59961 -0.64949203
4.6916599 1.08328 1.46249
4.69174 1.03184 1.40742
8.4410496 -3.01157 0.74288601
8.3775101 -3.0031099 0.70317501
4.2843599 1.08331 1.29339
4.4258299 -1.1202 -0.126103
4.0681701 -1.5703 -0.091684803
4.9727302 -0.263073 0.201618
5.5749602 -4.3169899 -2.40325
4.2783699 1.20204 1.5648299
4.29634 1.16506 1.50147
4.4330001 1.7342401 1.7709399
7.94168 -3.21737 0.63514
8.0063496 -3.1924901 0.66540998
8.0797005 -3.0506799 0.777004
8.1354799 -3.0015399 0.76308203
4.2432399 1.76176 1.94217
4.2698002 1.83007 1.9611501
3.6642699 -1.47306 0.71001899
8.2111797 -3.0873001 0.82236701
8.1496201 -3.1313901 0.81930602
3.90255 2.02406 2.1688399
3.86696 2.0015299 2.10572
5.3562398 -4.3320599 -2.4181099
4.5597 -0.204166 0.41566801
8.0073299 -3.1502199 0.74236298
5.8998699 -1.95858 -2.08459
6.1001501 -1.76335 -2.54303
5.2735 -2.48805 -1.33496
5.2856798 -2.52546 -1.40008
4.8340402 0.86422497 1.19962
5.0910001 -1.52588 -0.68657303
4.1332302 1.08034 1.30934
5.11515 -0.191801 0.14797799
4.4033599 -0.199404 0.336622
5.2158599 -2.3106201 -1.20855
5.27776 -2.3505001 -1.229
4.4632602 -3.9842899 -3.24559
4.9022102 -0.0296333 0.564726
4.7179098 0.66954899 1.04447
5.6680598 -3.1752801 -1.59938
5.7295399 -3.2200601 -1.6080199
6.0011201 -3.79388 -1.39369
5.9721899 -3.72297 -1.3908401
6.0151401 -2.2809701 -1.9588701
5.1391401 -0.67790598 -0.088997997
5.0778298 -0.65461701 -0.049206901
6.1124001 -1.53046 -2.53671
3.02914 0.28595701 1.05433
4.4949899 -0.25153899 0.40059
5.6653199 -4.4085002 -2.36672
5.0153399 -0.132328 0.357683
2.83705 1.83389 1.40292
3.6614599 2.2008901 2.33764
4.5562201 -0.83968902 -0.143484
8.4585104 -3.30194 0.83618897
8.3827896 -3.2982099 0.82223701
4.0612702 1.76393 1.9387
4.0739598 1.73725 1.86742
4.37325 1.70788 1.72841
3.33601 1.43186 1.16219
4.8409801 -1.4119999 -0.44704601
6.22194 -4.1174898 -1.3682899
5.08883 -1.66161 -0.76524597
4.2058301 1.01414 1.33377
4.2067199 1.066 1.39106
4.20294 0.87505698 1.27089
4.7603598 -0.93470597 -0.29777199
4.9057398 -0.47969601 0.16402
5.2920599 -4.38131 -2.39153
4.0529199 -0.699494 -0.069665998
4.4520502 -2.2149601 -0.97268599
5.7296801 -0.36875999 -1.65222
5.7041101 -2.09954 -1.2084
5.67134 -2.04215 -1.16791
3.9196801 0.41106901 0.78254497
3.98756 0.42065901 0.84252799
4.0562801 0.39119601 0.82194501
4.7038298 1.15983 1.45992
3.8849001 -0.076851398 0.38368401
3.95507 -0.078741796 0.416704
3.9193101 -0.16789 0.38092399
3.8986599 -0.207747 0.31757599
4.78157 0.71338302 1.1552
4.8418398 0.70187098 1.10762
3.0912299 0.1479 0.60915202
3.1171501 0.077497497 0.58907598
3.3601201 -2.2823 -2.1298201
8.4091702 -3.3912899 0.755247
3.9524701 -3.9974999 -2.3278799
4.9877501 0.422768 0.68622202
2.9154401 -2.3283 0.165952
2.9767101 -2.3434601 0.120228
3.6320801 -0.84985298 -1.03866
3.70345 -0.84079099 -1.06876
5.36305 -2.5824101 -1.41292
5.2969799 -2.6013701 -1.44979
5.1154199 -1.08997 -0.244069
5.0441899 -0.412891 0.150971
4.6694398 -1.59884 -0.66910499
4.32233 -1.88642 -0.747549
4.2532201 -1.91476 -0.724859
8.30688 -3.6188099 0.37578401
8.2401104 -3.6324899 0.33771199
5.8480902 -2.16835 -2.02226
5.8780198 -2.2402401 -2.0282199
3.8664 1.31214 1.64676
3.8856101 1.40083 1.6780601
5.2918301 -4.3081002 -2.27651
5.2921 -4.3098698 -2.27145
4.7083902 0.0174076 0.498665
4.9306698 -4.2002602 -2.3918099
8.0049105 -3.23738 0.59326297
4.8456702 0.74977702 0.94048601
5.0086598 -0.59798002 0.136191
4.3062801 -0.716618 0.00567212
3.88165 1.4611 1.7560199
4.5880899 -0.61852902 0.110666
3.4015999 -1.15509 0.98126101
3.96071 0.94726098 1.36528
4.6154599 2.0969601 2.2853501
5.7620502 -2.12656 -1.16233
4.1508698 0.088410102 0.53730899
4.14992 0.033631999 0.480661
3.30303 1.41118 1.2549
8.5269499 -3.2756701 0.807109
8.4972496 -3.5462699 0.73727399
3.29317 1.35472 1.38114
4.8070402 -0.19190601 0.43550801
5.8034101 -0.26655099 -1.66223
3.59567 0.68041903 0.86313599
3.7923801 -0.54393101 0.22412001
3.4781401 -1.3898 0.710311
5.1277399 -2.2202699 -1.01243
4.2164998 0.20660999 0.61395103
4.14642 0.179249 0.58927
4.7220302 -1.15487 -0.26723099
4.4172702 -2.01103 -0.96718699
3.8831501 0.99877602 1.41512
4.3058901 -0.93572801 -0.25171801
4.2458801 -0.98480898 -0.23468401
3.9641199 -0.233427 0.381246
4.03582 -0.44413999 0.178197
4.0394702 -0.36848301 0.202124
4.8605099 0.61917901 0.77435899
6.1629901 -4.0224099 -1.2955101
5.4711399 -1.25565 -0.65330303
4.7372398 -1.64191 -0.718211
4.3464899 2.21859 2.30775
3.9368501 -1.61983 -0.039244998
3.4651799 0.84787703 0.767142
4.5974102 -1.49887 -0.24403299
4.3755298 2.30211 2.29371
5.1824002 -0.234836 0.14878701
4.2320399 -4.39676 -2.22771
5.3011899 -5.8508902 -3.0276501
4.2677398 -4.3497701 -2.1182699
8.0108404 -3.2635701 0.484548
7.9439001 -3.25172 0.52695203
3.2285099 -2.30234 -2.78918
3.5346701 -1.21727 -0.69713902
4.8880301 -0.80887198 -0.182025
4.77457 -1.4324 -0.280247
4.7897301 -1.4972399 -0.32492301
3.5973699 -1.18156 -0.74075502
4.3148499 -0.15402301 0.361388
4.3852701 -0.125989 0.38774499
4.5813699 -3.35199 -1.3036
8.07341 -3.22527 0.63558298
4.0009599 1.58006 1.77779
2.7776301 -2.5734899 1.89425
2.7010901 -2.5555 1.91134
4.4877601 -1.44171 -0.246031
3.5290201 -4.5756202 -2.5442801
4.4310198 2.38867 1.95253
3.1298201 0.66238302 1.15795
3.10866 0.58678299 1.13943
4.35461 0.049886201 0.53310502
5.1690502 -1.38854 -0.51272303
6.1386099 -3.9542201 -1.25982
5.5868301 -0.16791099 -1.4566801
5.6334901 -0.10285 -1.46708
3.6489401 -1.54055 0.668405
3.9189899 0.50791901 0.93036002
3.98752 0.54881001 0.94304299
4.2006202 2.17788 2.2348399
5.0193 -0.118665 0.461025
2.94578 1.90952 1.99059
2.9108701 1.9196301 2.06304
4.3074899 1.76112 1.88052
4.7873602 -0.95490003 -0.15071499
3.6401501 1.39331 1.7131
4.5278502 -1.78248 -0.87785298
3.0729401 -2.4242699 -1.13024
4.8606601 -1.28412 -0.35822999
5.6831498 -1.70649 -1.08007
5.68541 -1.77408 -1.12521
5.1469102 -1.30551 -0.406883
4.04004 1.20022 1.7013299
8.2548199 -3.5699201 0.58397001
3.9877901 0.48734 0.88953
4.3706102 1.14178 1.4721299
4.3245001 1.07699 1.45391
3.16594 -2.40135 -1.05963
4.4586 -1.21478 -0.16993301
5.6909699 -5.5227299 -3.05305
4.2190399 0.12945201 0.55568999
3.9171 0.458377 0.86065602
4.4033699 -2.8199699 -1.9532
4.0771098 1.60964 1.81197
5.8167901 -0.78929597 -1.90474
5.8120399 -5.5113401 -3.0855
4.0034199 1.39859 1.59385
4.0733399 1.43007 1.6222301
5.74581 -5.57023 -3.08898
3.6749001 -0.50522202 -0.84597099
3.17611 -1.8702199 -1.14886
3.2179401 -1.93862 -1.16526
3.38416 0.248272 -0.398651
4.3724198 2.41941 2.33197
6.0841498 -2.5397699 -2.4288599
3.2708299 -0.20223901 0.61434102
3.2686901 -0.180343 0.53535199
6.1941099 -5.4423699 -2.8774099
3.2402699 -0.059839599 0.66915798
3.1680601 -0.045629401 0.632936
2.4191501 -0.53849 0.604828
2.48963 -0.54527801 0.56341499
3.8092599 -2.0171101 -1.94415
4.0569201 0.53781497 0.88844198
3.88076 -2.043 -1.95119
5.2705202 -2.4191899 -1.28335
5.3351998 -2.4147999 -1.23274
4.5061402 1.32767 1.44551
3.7715499 -1.87805 -1.966
5.9965301 -3.8086801 -1.47465
5.2644801 -1.14502 -0.38096899
2.28178 -0.19725201 0.49700201
2.32988 -0.13823999 0.52882302
4.81007 0.479013 0.67865902
8.2748699 -3.6038201 0.45321199
3.46419 -2.21491 -2.17484
8.1743002 -3.38399 0.51977402
4.2060499 0.97527599 1.2609
2.50541 2.1470499 0.93409801
3.21245 -0.277491 0.209197
6.01057 -3.71492 -1.31804
3.7465301 2.0314701 2.1659901
3.4714899 0.88952303 0.861812
2.62691 -0.335071 0.36351401
4.3305202 -0.62831098 0.050228
3.10289 0.20076001 1.07999
4.9675598 -1.8435301 -0.87865698
5.1420898 -0.47933301 0.199972
6.0915298 -4.0554299 -1.4357001
6.1547899 -4.0470901 -1.38255
3.93027 -2.0381801 -1.90545
3.22667 0.172829 0.90422201
3.2419 0.252121 0.92374098
7.8790302 -3.2277601 0.573053
4.0779901 0.077955499 0.49864799
5.5226002 -4.2673101 -2.2939501
5.3329601 -4.31742 -2.3480899
5.5214601 -4.2645502 -2.2967501
3.9988101 1.52591 1.70928
4.7513299 0.93289602 1.65069
5.4477801 -4.26335 -2.27507
4.7466302 0.46090299 0.74069297
4.4563899 -2.81528 -1.91044
3.38498 -1.02628 1.0781
5.9913802 -0.95968598 -1.9666899
4.1658902 -0.29225001 0.21620999
3.13521 0.075575903 0.697833
3.9056201 -0.55456299 0.087384202
5.8625998 -1.93627 -1.18066
4.1137099 -0.70319498 -0.126949
3.9993801 1.4717799 1.6444401
4.2361202 1.69347 1.8514
3.82495 -2.00456 -2.02669
4.3952999 1.32836 1.49875
2.2685101 -1.49547 1.92997
3.7778299 -1.98665 -2.1101201
4.2164502 0.26728499 0.671673
8.61695 -3.4235001 0.936171
3.43852 -2.3382299 -2.0433099
2.8503799 -2.3668399 0.0178372
2.93139 -2.38819 0.022641201
3.74615 -1.91366 -2.0771699
4.0458102 -4.2217302 -2.21838
4.0033202 0.078913301 0.44133401
3.9321799 0.1188 0.46133199
4.2156901 -0.338613 0.26662099
4.0763898 0.148846 0.55390102
3.8750501 0.83270103 0.98659599
6.1555901 -4.1126099 -1.43555
3.2800901 -2.4814601 -2.26385
3.8373401 0.67654997 -1.00393
5.40137 -1.63423 -0.80186301
3.8272901 -0.609689 0.173576
3.4739499 0.94328701 0.94093198
5.2873101 -1.27158 -0.42876801
3.54987 2.5894699 2.6999199
4.2939701 2.1937001 2.15189
5.35182 -4.2989502 -2.4354601
5.5476899 -4.3003001 -2.34657
5.9184999 -3.66083 -1.4114799
2.6091199 -0.312967 0.528938
2.56618 -0.32970801 0.457858
5.4475799 -4.2634702 -2.2740901
4.44207 -0.335861 0.100799
4.0798302 1.94357 2.1056099
5.5959902 -3.9800999 -2.1103301
5.4617901 -4.2342401 -2.37571
3.5708201 -2.7472799 -3.23225
3.86692 -1.59377 0.082449697
4.1278801 -2.85078 -2.4168601
3.4472401 2.70154 2.9084799
4.7863302 0.77686298 1.22949
3.91693 0.205587 0.53758699
3.63094 1.66781 1.95883
3.73892 2.15978 2.2957201
4.0761499 2.5853701 2.52931
5.5812802 -0.0265867 -1.51288
5.7284698 -1.63801 -1.0575401
4.97822 0.060884401 0.50608802
4.99439 0.0167343 0.43503499
3.7335701 -2.7175801 -3.21751
3.26577 -2.00826 -1.17677
3.60673 -2.7502899 -3.2718799
4.4921498 1.74624 1.66922
4.0795102 2.1696401 2.2859399
8.3048 -3.28425 0.79047501
3.9376199 1.23947 1.54474
2.8786299 1.11247 1.62306
4.3495998 1.24866 1.49491
4.1947799 1.5691 1.77478
8.1059198 -3.6477301 0.31219301
8.1620998 -3.6077299 0.26167899
6.2853799 -3.9087501 -1.20897
4.3952498 1.39791 1.5484999
5.93433 -0.74233699 -2.0006199
4.0767698 -4.8508201 -3.22665
3.6721499 -2.7455399 -3.2384
3.63678 1.43874 1.82682
5.3715701 -4.2504702 -2.35465
3.4219 2.65028 2.74981
3.8828199 0.71206301 0.991445
3.95768 0.67740101 0.96702701
4.0036402 0.13693701 0.50576103
3.8413899 0.186217 0.603405
3.6973701 2.5555 2.64695
3.39428 -2.2767 -2.2983501
5.3537798 -1.27136 -0.53079098
3.2958801 2.6832099 2.8189099
3.2927499 2.7704899 2.9630001
5.5001502 -1.51353 -0.76266098
5.5506902 -1.44665 -0.74193501
3.2698801 1.6870199 1.9238501
3.27124 1.73976 1.99224
2.8914299 -2.6157899 -0.165153
3.7342801 -2.71278 -3.2249701
4.2913899 0.145063 0.600299
4.4352999 1.92248 1.85903
5.9264202 -3.9308 -1.92624
3.7595 0.369638 0.713543
4.0756898 1.48016 1.6927201
3.18469 1.86419 1.95859
3.1656699 1.88807 2.0395501
3.6675601 -2.71299 -3.2570801
3.16012 -2.3520701 -2.5878301
2.73277 -2.6288099 1.84025
5.3789201 -0.514732 -0.238745
3.8522201 -1.9673899 -1.92933
4.0050902 1.33325 1.52617
4.0766702 1.5422 1.7554899
5.1600299 -3.58325 -1.90176
5.1560998 -3.6712601 -1.8907
3.5436699 -0.086475 -0.76021898
4.0785499 2.10079 2.2184401
5.5731502 -2.1131799 -1.2307301
5.5462799 -2.05145 -1.17584
3.5704999 -2.9677701 -3.1614001
8.6148195 -5.7987199 -1.10936
5.1004701 -3.46241 -1.81257
5.9760499 -3.9239399 -1.86229
5.5096302 -2.9762199 -1.57947
5.9952598 -1.43225 -2.3899
3.5496199 2.4955399 2.5849099
3.8427801 -0.44559401 0.22672901
4.01092 -1.41269 0.207417
4.0020599 2.10533 2.28386
4.75595 -3.98333 -1.39513
5.8002901 -3.54403 -1.2797101
5.8425899 -3.59463 -1.33664
4.68255 -3.9878099 -1.35535
3.8271501 2.0481901 2.2088101
2.90099 -1.92377 1.61445
4.7044201 -4.0423398 -1.40215
6.02001 -3.87992 -1.58436
6.0223799 -3.9367199 -1.51824
5.6173501 2.0513799 2.56235
3.5748 -1.36659 -0.667202
4.6296701 -4.0096798 -1.39615
5.7787199 -0.70137 -1.86087
3.3091099 -1.0463099 0.6534
4.6049199 -1.35682 -0.303487
4.3480601 1.9013799 1.95169
3.04196 1.11321 1.59413
3.3018 1.39317 1.03799
8.1887398 -3.5606301 0.363253
5.9307799 -3.87219 -1.80803
3.8696201 0.0396116 0.46799201
3.85095 -1.8878599 -1.46463
3.9180501 -1.83152 -1.46454
3.9235401 1.57304 1.72702
3.9976799 2.0592899 2.19963
3.8231699 2.1219299 2.2699599
3.7481699 2.0848601 2.2430899
4.07828 2.0273499 2.1543
3.9960699 2.0095 2.1194401
5.5692301 -0.52083999 0.145487
5.1470499 -0.59711498 -0.055045299
4.3313999 1.6171401 1.7260799
3.4209399 2.55252 2.6343
5.2399101 -0.39699599 -0.110255
4.10922 -1.69699 -0.38539901
5.4636898 -1.91984 -1.01732
3.66014 0.118756 0.62857503
4.783 -2.5455999 -1.42265
5.1205401 -1.0317301 -0.178057
3.8577001 0.105774 0.56094497
5.2558799 -4.3097601 -2.33952
5.8972201 -2.05428 -2.1163199
2.7267101 1.80922 2.0871
3.5798099 -2.9175501 -3.2551301
4.0405002 -5.0199399 -3.39169
5.57061 -2.9665101 -1.53306
3.77672 -2.9477401 -2.8060701
6.1976299 -3.9442401 -1.19464
3.8736501 -1.36272 0.15691701
6.0650702 -1.37036 -2.4372499
4.2718701 -3.0426199 -0.65854299
4.8812799 0.94097 1.30023
5.1891198 -3.49488 -1.96565
3.4198599 1.38915 1.6283799
3.6828301 2.4356799 2.5345099
3.5622599 0.882002 0.92607898
3.8408799 0.390432 0.74276298
3.41765 1.7438101 1.8732899
5.2442899 -3.59641 -1.91032
4.0262098 1.84235 1.97183
3.93732 1.8444 1.97679
4.6180701 -4.1812 -1.4495
3.72732 0.97094399 1.37222
5.1800098 -2.5466199 -1.42494
3.2030599 0.164414 0.779127
3.2761199 0.195325 0.82011801
4.1402798 -2.5924399 -0.420553
4.5681801 1.38692 1.42066
4.4393501 -3.8181901 -2.9317501
5.3529701 -1.37045 -0.51636702
5.3575602 -1.43362 -0.45338899
3.8739901 -3.589 -2.3919499
4.1124601 1.80477 2.0079801
4.15977 1.6221499 1.85192
4.4400101 1.4932899 1.54215
4.4501801 -3.05637 -0.80950701
6.0126801 -4.2540598 -2.4986899
3.5394001 2.3858099 2.46242
3.2906301 2.5266099 2.5569
3.4735999 -2.33671 -2.3027699
4.27143 1.94022 1.98236
2.55249 1.7358299 2.17677
4.1833501 2.0252099 2.09988
3.4684999 -2.26437 -2.24524
5.3936701 -0.98172498 -0.314652
4.1682801 -2.5836401 -0.32844901
4.8040099 -1.51603 -0.411933
5.6670899 -1.93615 -1.05809
4.2920799 0.20015401 0.67193502
3.3984799 -2.2697501 -2.1960499
5.6174502 -2.30212 -1.51256
3.33114 -2.3670499 -2.2980199
4.7453499 -4.20784 -3.10396
5.5779901 -1.41284 -0.66263098
3.8082099 -3.2869899 -2.8255601
4.24897 2.1096599 2.1087401
5.4259 -1.44563 -0.64722502
5.4228101 -1.37861 -0.58637702
5.0479898 -1.71719 -0.82395899
4.1725502 2.22752 2.3629
6.8278499 -5.0809798 -0.83977002
4.7483001 -4.26792 -3.1544499
3.3303001 -2.3245699 -2.2200501
4.59723 1.44653 1.4824899
4.0780001 1.89308 2.0262899
5.4337602 -1.5009201 -0.87346601
2.5822999 2.1519101 0.99882299
2.5063601 2.20576 1.00335
4.14856 1.74204 1.95122
4.5693498 -4.1240702 -3.1512301
4.48208 -4.0135002 -3.04299
4.7469602 -4.1846299 -3.03233
3.4249101 -0.79979199 -0.78992802
2.5808799 2.2290101 1.05018
5.8480401 -0.482759 -1.93005
5.8868399 -0.40663901 -1.96149
4.5588498 -4.0690298 -3.12778
4.2480302 2.71628 2.76455
5.89288 -0.55513799 -2.02547
4.4489298 -3.87322 -3.0052199
3.7934 -3.67559 -2.1441
4.8245902 -4.3021402 -2.99734
2.57072 2.26388 2.37798
4.8197098 -4.3034801 -3.0836999
5.0426502 0.0965508 0.615354
4.3484101 1.54825 1.66617
6.9983401 -5.0092902 -1.52194
3.7574301 0.202485 0.63576198
3.40293 -2.37411 -2.3387101
5.9454999 -2.4849801 -2.11375
4.4678798 1.42 1.48151
5.6066599 -5.6466398 -3.0673101
5.4489899 -0.88130498 -0.715572
6.90276 -5.07653 -0.92632002
4.62468 -4.3392501 -3.1989901
2.9375501 2.6651101 2.7529299
5.4499402 -2.91608 -1.47755
3.91608 1.67918 1.8126301
4.1631098 2.1180999 2.1573999
6.2733898 -2.0223401 -2.7753501
4.60358 -4.1309099 -3.1131599
5.7761502 -3.5862999 -1.39938
4.5953598 -4.2059698 -3.2400701
6.2104101 -4.2783699 -1.5242701
3.29142 2.4503601 2.4635799
5.98734 -1.04029 -2.04073
2.95292 0.25521499 1.09584
3.7963901 -3.52967 -2.61025
4.7955499 -1.24519 -0.22146399
3.7422099 1.99402 2.07323
4.8078098 -4.0516601 -1.80873
5.3733001 -1.47735 -0.73877603
3.1819799 2.58815 2.58904
4.9444699 -0.047000699 0.390724
4.6855502 -4.2965899 -3.18139
5.2309599 -0.723791 -0.0858564
5.17241 -3.4293001 -1.88332
4.50143 -4.3463898 -2.2425499
5.3534498 -5.78547 -3.1205101
3.2918899 2.6159799 2.68016
3.6568401 1.96538 2.03318
3.6651299 1.8857599 1.98671
4.6788402 -4.16469 -3.089
4.5548501 -4.0336499 -3.07233
5.4696898 -1.0106601 -0.64900303
5.0655499 -1.42404 -0.59492201
4.36765 1.48169 1.60446
3.17855 -2.33708 -0.97566801
4.5769801 1.58509 1.35142
4.0162001 -4.8670001 -3.26952
5.2245698 -3.42942 -1.9028701
4.6229601 -4.0399499 -3.02423
5.66853 -0.026515899 -1.54489
4.6894002 -4.2715001 -3.10941
4.5002899 -3.8708899 -2.9602301
5.7600398 -2.59446 -1.70638
6.9095402 -5.0258799 -1.5566601
4.0008998 -4.8058801 -3.1763401
5.3283501 -5.6869798 -3.1188099
5.80269 -3.71192 -1.68309
3.4997599 -1.3845201 -0.30149201
3.7662399 -3.67821 -2.02719
5.4008298 -5.6767702 -3.1036799
5.4071598 -5.5929599 -3.04427
3.5757201 1.7891901 1.94257
5.5497398 -5.7216101 -3.18185
3.08059 -1.70402 -1.22816
5.5556302 -5.8088598 -3.22698
2.73718 -0.18559401 0.48432401
6.7150202 -4.9926 -1.43129
4.2779198 1.53662 1.72965
2.9398701 1.88086 1.89835
2.93519 1.84358 1.8124599
3.5605199 0.79484397 0.89157099
5.0517602 -3.7716401 -2.07353
5.7818999 -2.4998 -1.65255
3.6710801 1.77316 1.96512
3.32196 -2.64429 -2.6503201
3.82658 -3.5319901 -2.5920401
5.0177302 -1.62272 -0.81264299
5.1150599 -3.8043301 -2.1015799
5.62817 -1.9543999 -1.95514
3.99616 1.68464 1.86658
3.5411899 -4.5971098 -2.70315
2.66487 1.33088 1.95283
5.0591402 -3.8731401 -2.0937901
4.4819198 1.61564 1.5434099
5.1173 -3.87344 -2.1429
4.7599802 -1.52833 -0.58505201
2.5511999 1.791 2.25301
3.81517 1.72437 2.0072899
5.11761 -3.8738101 -2.14362
5.1761298 -3.87672 -2.1886001
8.5036201 -3.1858201 0.823493
5.0010099 -3.8747699 -2.0423901
3.1003499 -1.8993599 -1.16757
5.1168098 -3.9205799 -2.19926
2.4727299 2.35659 2.8998001
5.17591 -3.92449 -2.24436
5.23698 -3.9295101 -2.2892101
4.5550599 -4.4000401 -3.1947401
5.2962899 -3.9332299 -2.3306301
3.4214101 2.4537301 2.5228901
3.7493501 -0.99247098 -1.22664
3.82531 -0.97050101 -1.27882
4.7299299 -4.13135 -2.8243899
5.5921001 -2.3871901 -1.57155
5.9781199 -2.5250499 -2.2551701
4.14816 0.90078902 1.04346
4.7899799 -4.132 -1.68884
5.1185899 -4.0336499 -2.3027401
4.2967801 1.46517 1.6700701
3.1810801 2.5067899 2.49966
3.9906199 1.93735 2.0579801
4.25173 2.7893901 2.9200301
4.8957701 -1.7362 -0.873169
3.81603 -0.55397201 -1.07661
3.01881 -1.79198 -1.08033
2.6689 2.1646299 2.35953
2.6405101 2.1333799 2.27437
5.3946199 -3.7474501 -1.98299
5.73035 -0.443481 -1.7111
3.3424001 1.39906 1.68695
3.3415999 1.33228 1.61918
2.77033 -0.13501599 0.410698
3.4482501 -2.5474701 -2.43381
5.1276398 -4.1405501 -2.3101201
3.1082201 -2.45169 -0.94795501
4.1072001 -4.9413199 -3.2370999
5.1278801 -4.1362 -2.31266
4.1896701 1.86087 2.0104201
4.2069201 -1.48496 -0.434461
4.1391301 -1.5221699 -0.490493
4.6915998 -3.96732 -2.8284099
5.8808699 -3.7829001 -1.79703
4.5679598 -4.4092398 -3.1981599
3.15643 1.98209 2.1400599
3.24032 2.0134301 2.1733601
5.2079501 -4.2880301 -2.2678001
6.0725098 -4.13976 -2.6366501
4.2658601 2.85639 3.0615201
5.9577799 -1.17731 -2.7154801
4.2132502 -1.50108 -0.58152097
4.7901301 -1.31655 -0.28499401
4.1409101 -4.8808298 -3.2337899
4.7484798 -4.0166702 -2.86624
5.9819999 -3.1787601 -1.75734
5.3860002 -0.95304501 -0.63217402
5.9225798 -3.07862 -1.71316
4.2448001 1.36011 1.67775
3.1800301 2.42997 2.40258
5.2526898 -4.2320299 -2.2581699
5.05758 -3.9154401 -2.15429
3.0336001 2.59531 2.68876
5.3521099 -1.07184 0.0045346301
4.2294502 1.44047 1.75209
5.6393199 -2.4727001 -1.64809
5.1774802 -3.60146 -1.90523
4.7834802 -4.0879798 -2.1840799
5.05722 -3.96348 -2.2100401
5.9699898 -1.1979899 -2.5522699
6.1628799 -1.59366 -2.62796
5.2536802 -4.2389102 -2.2567401
6.2762299 -1.9275301 -2.6414001
3.8252599 2.3748 2.4786799
5.1178298 -3.9765999 -2.2494199
3.54352 1.4056 1.64912
5.17839 -3.9756601 -2.29917
5.9827399 -3.05481 -1.7511801
5.1767302 -3.9765 -2.2962401
5.0577598 -4.0188799 -2.2620201
5.1226802 -4.25491 -2.2664599
5.23873 -3.98434 -2.3381901
5.35675 -3.94331 -2.3673799
5.35778 -1.11361 -0.28233501
5.0798898 -1.2066801 -0.43820801
3.38504 -1.35693 0.783153
5.3062901 -4.0410199 -2.34377
5.28197 -5.6404099 -3.0782499
5.2750201 -5.7378702 -3.0576899
5.1858201 -4.0712199 -2.3218801
3.3696401 -1.2994 0.85324502
5.3681002 -4.0575399 -2.37643
5.3545899 -2.5676401 -1.26508
3.4867699 2.11444 2.1624899
6.04568 -1.71052 -2.4281499
5.0728898 -4.1716099 -2.2488401
6.1986198 -1.68616 -2.6416299
3.3775599 -2.5729201 -2.3734801
3.4551799 -1.29971 0.89089501
4.1714001 -1.99799 -1.69085
3.47226 -2.4550099 -2.3841801
3.4172299 1.49748 1.67635
3.57406 2.0595901 2.1435299
5.2129698 -0.543001 -0.101387
3.4581101 -1.24527 0.93165803
6.01298 -1.54401 -2.3721399
5.4834499 -5.78337 -3.1517701
5.4042401 -5.8241401 -3.1818399
4.0907502 2.6003799 2.6349699
5.2444301 -4.0815501 -2.37272
3.6633899 1.9928499 2.1334901
2.5450399 2.1387 2.38257
2.5104001 2.08634 2.4568801
5.1283998 -0.430022 0.068270698
3.53562 -1.29603 0.90552801
5.4356599 -1.54379 -0.67120898
5.4739399 -5.7075601 -3.1366601
5.2082801 -4.2883101 -2.26495
2.8266399 -1.92067 1.69055
3.95822 -2.1022999 -1.92559
2.6665499 2.0892601 1.14412
5.2498899 -3.5098 -1.94041
3.6015401 -1.35482 0.89870101
3.4014699 2.2991099 2.3388
3.4856999 2.2631299 2.3053401
4.7613702 -4.2130399 -2.0260601
3.9811201 -1.99323 -1.85238
5.2305498 -1.46272 -0.48374
3.57722 2.10693 2.22895
4.3403802 -1.69727 -0.59604502
4.7564998 -4.0784702 -2.9228301
4.0457602 1.54366 0.99587601
4.3798499 -1.88738 -0.832807
2.72805 1.99691 0.937608
3.66729 -2.7148199 -3.1127501
2.46732 2.46631 3.02229
3.48614 2.32548 2.38187
3.2881999 -1.19303 -1.32815
4.6234002 -4.4321799 -3.3916399
4.4369402 -1.3068399 -0.52168202
3.3842599 -1.35175 0.80566198
3.7539501 0.68247801 -0.95072699
8.4085903 -3.5448501 0.68557698
5.7117801 -2.4990499 -1.6318001
3.4416699 -0.642694 -0.79997599
3.5160999 -0.60674399 -0.85475802
3.8349099 1.6771899 1.73945
3.8555701 -2.44154 0.142261
4.1613598 -1.86905 -0.60934901
4.2013202 -1.83444 -0.52538902
5.4190998 0.77680099 1.48211
3.4151101 1.5307699 1.7743599
3.4641199 -1.18669 0.96322101
4.2592502 -2.29335 -1.92737
4.1898098 -2.1361001 -1.74575
3.5343499 -1.24733 0.96583098
3.02245 1.82991 1.87354
4.8238401 1.64279 1.9060301
5.6866698 -2.2999799 -1.53789
5.4149899 -4.6987901 -2.5114801
4.3283901 -2.3207099 -1.79131
5.3185501 1.3245699 1.95195
5.4151502 1.3235101 1.9268399
4.3130398 -2.2563901 -1.74761
5.8200202 -3.9314699 -2.0569301
3.59484 -1.39293 0.79951501
4.1572299 -1.9381 -1.63726
5.7444601 -4.5128498 -2.26863
5.7396598 -4.0279002 -2.1653399
4.0427198 -1.92664 -1.78037
4.1624599 -2.3601601 -2.0643201
5.5744901 -4.0204401 -2.20329
3.9893301 -1.74069 -1.65486
5.7472801 -4.1673799 -2.1787901
6.17908 -3.3109 -1.8539701
5.2797699 -1.00267 0.00114945
5.5235801 -4.1120901 -2.1731999
4.2529302 -2.1526599 -1.64266
4.3800001 -4.3681898 -1.2347701
4.1479502 -1.56513 -0.30215099
5.7309499 -4.2952499 -2.15768
5.65802 -4.8712001 -2.2873499
3.6529 0.246234 0.66024202
3.6545701 0.31265599 0.73552799
5.5796099 -1.8627501 -2.0953901
4.27876 -2.35971 -1.9543
5.4163499 -3.5295601 -1.90096
4.0257702 -1.98928 -1.95807
3.63799 -2.6893301 -3.22458
6.2128301 -1.756 -2.72702
8.4221601 -3.1560199 0.77222401
3.4012301 -1.19991 0.92316598
3.8032899 -0.68294698 -1.11323
5.2074599 -0.61782902 -0.168768
3.5838001 1.8881299 2.0462899
3.3993399 -1.2618901 0.88567197
6.2484298 -1.8224699 -2.6570401
7.7775898 -3.2286201 0.515378
3.0058401 -2.77858 -0.16357
8.67519 -3.4884701 0.98760998
3.0883999 2.27284 2.44222
2.9943399 2.30195 2.4660101
6.6789198 -5.5866098 -1.85456
3.85375 -0.87242502 -1.22458
3.0046799 0.155174 0.970424
3.48804 2.1764901 2.24266
3.79528 0.0086925104 0.52966702
6.06177 -1.61185 -2.4501901
4.1840601 -2.2579 -2.1043799
3.3977499 2.1816399 2.17242
3.3116 2.2297201 2.1965101
3.03462 0.35040501 1.17249
5.51017 1.99888 2.4955599
6.90874 -5.0086002 -1.45301
6.1234002 -4.2327299 -2.66221
6.11022 -4.3789401 -2.60466
4.2617102 -2.2403901 -2.6260099
3.39923 2.2437501 2.25315
4.4685602 -1.80528 -0.62758601
4.4699001 -1.7034 -0.62978297
6.1422501 -4.1946402 -1.69612
6.0745201 -4.1213698 -1.67537
5.8288598 -0.41969299 -1.81722
5.66821 -2.4618001 -1.49192
5.4609098 -4.3603301 -2.2701299
4.1947198 -2.87976 -2.36059
3.45684 -1.3404 0.80401099
3.6558499 -1.42791 0.78655201
4.2451401 -2.22628 -1.88806
2.83722 1.91626 1.6993999
4.23312 -2.1696999 -1.82304
7.8674598 -3.2376399 0.46049801
4.2596302 -2.2943599 -1.9277101
5.7874398 -4.0359402 -2.0283
4.0759101 -2.91747 -2.4101901
4.71699 -3.81774 -1.35593
3.5327899 -1.3427401 0.836851
2.92311 1.86452 1.67232
4.4935498 -3.7184999 -1.16824
5.4598999 2.13483 2.6309299
3.3540001 -0.471062 0.29107401
4.3284998 -2.3209 -1.79071
4.2438798 -2.2289901 -1.88542
8.1537199 -3.2878499 0.62235099
2.77057 1.88535 2.1403
4.1797299 -2.0764301 -1.6831599
4.0450201 -1.53354 -1.59944
5.8154998 -2.3942201 -1.94586
4.0450201 -1.53354 -1.59944
4.6041098 -3.7725799 -1.25211
3.5334201 -2.5194499 -2.7927201
4.5598402 -3.7613201 -1.275
4.2028298 -2.3378999 -2.08359
5.8983998 -4.57231 -2.5557899
4.08182 2.2665901 2.3917899
4.5732298 -3.8405001 -1.27781
5.69593 -4.1241598 -2.12764
5.6198301 -4.2760901 -2.1989801
3.2355299 -1.5243 -1.1688499
4.0927401 -1.69051 -0.29688701
3.7532699 0.86066502 1.13828
3.7569699 0.829983 1.03985
3.2822399 -0.085692503 0.574494
4.9137001 -3.68858 -2.0046501
7.8561001 -3.1378701 0.61879802
5.8908701 -4.7021298 -2.6042199
3.8106401 -0.52669698 -0.00767041
4.2217002 -2.61094 -0.53890997
5.2851 -5.5655699 -3.03774
3.91395 -0.99597597 -1.62939
3.84196 -1.03642 -1.5669301
5.8081398 -4.7063699 -2.59097
4.5215902 2.2111399 2.2260799
6.23385 -4.1448398 -2.75406
2.6374099 1.8365901 2.28812
4.2003298 -2.8034501 -0.58998603
5.5425501 -4.8225799 -2.53496
5.5767298 2.3247299 3.02086
5.8666 -0.239649 -1.83277
4.76754 -4.32128 -1.78843
5.8563099 -4.7495699 -2.6638999
5.8554301 -4.7504201 -2.6637599
5.9927902 -2.1737001 -2.0255401
6.3638601 -4.81847 -1.79638
6.6297202 -4.9952898 -1.4805599
3.1931 2.24999 2.33727
3.88377 -3.92623 -2.4976799
4.1700702 -2.00682 -1.68562
5.6689501 -2.1770899 -1.33417
