# .PCD v0.7 - Point Cloud Data file format
VERSION 0.7
FIELDS x y z
SIZE 4 4 4
TYPE F F F
COUNT 1 1 1
WIDTH 1732
HEIGHT 1
VIEWPOINT 0 0 0 0 0.5 0 0
POINTS 1732
DATA ascii
-3.44524 1.39413 11.3373
-3.2058499 1.1645401 11.5713
-2.257 0.86241001 12.8038
-3.6491699 0.74913597 11.7139
-3.0878999 0.51051903 11.9795
-2.97893 3.1623001 12.3924
-3.08125 0.418253 12.037
-3.33691 1.1578799 11.4783
-3.49931 1.9844 10.9573
-3.05006 0.88984901 11.9492
-3.6424899 0.713067 11.7179
-2.99575 0.76385802 12.0595
-2.9855399 0.747536 12.0686
-3.95508 1.73101 11.1092
-3.2836599 0.66700703 11.8854
-3.28336 0.666969 11.8853
-3.53391 1.57652 11.2304
-3.4892499 1.99672 10.9789
-3.6059301 0.56429201 11.8628
-3.5873101 1.95119 10.9566
-3.4530699 1.27888 11.4273
-3.60672 1.6816 11.1913
-3.60659 1.66348 11.2026
-3.31288 1.15394 11.4758
-3.4611499 1.25934 11.4325
-3.6234 0.69105703 11.8029
-3.0852101 0.492989 11.9872
-3.60622 0.69928199 11.814
-3.24667 1.3859299 11.4716
-3.6368599 1.8011301 11.0617
-3.3013101 0.436441 12.101
-3.5102999 1.46775 11.3019
-3.4247 1.38314 11.3399
-3.4709001 1.2783099 11.4249
-3.3099799 1.72589 11.5816
-3.30305 1.74518 11.5878
-3.63027 0.66861498 11.8074
-3.02494 1.01193 12.0194
-3.0137999 0.99407297 12.0234
-3.63992 0.70729798 11.7873
-3.59622 0.685112 11.8304
-3.74805 1.74194 11.2558
-3.4707201 1.52283 11.2864
-3.6561799 0.693205 11.7275
-3.4723401 1.28157 11.4284
-3.8322501 1.8139 11.1959
-3.6976199 1.49981 11.2689
-3.46292 1.50775 11.2996
-3.6173699 0.73178899 11.8247
-3.5773101 1.75475 11.1292
-3.9662001 1.69499 11.1134
-3.61851 0.65424198 11.8194
-3.90973 2.14871 10.9613
-4.0910802 2.0462401 10.8898
-3.7244401 1.5810601 11.3817
-3.67189 0.67853999 11.7956
-3.0729401 0.882357 11.9225
-3.1912799 1.26966 11.7989
-3.7327199 0.93680602 11.6274
-3.63238 1.90739 10.9428
-3.93662 2.1928699 10.9004
-3.97069 2.24862 10.8382
-3.9981599 2.39433 10.7629
-3.9788899 2.2205701 10.8358
-3.2040801 0.95606399 11.6271
-3.7617199 1.54035 11.362
-3.5372601 2.27773 10.8739
-3.5536101 2.29158 10.877
-3.5441 0.60318601 11.8665
-3.5211999 0.97404402 11.6751
-3.86711 1.96043 11.1128
-3.6041 0.63367599 11.8298
-3.4902301 1.88746 11.0053
-3.20473 0.98198301 11.6081
-3.6459899 0.64807898 11.7694
-3.6775999 0.48430401 12.0369
-3.94997 2.17523 10.901
-3.6161001 0.61689901 11.8323
-3.6393399 0.63305199 11.802
-3.5801499 0.61723602 11.8509
-3.18256 1.16682 11.6321
-3.59266 0.59987998 11.8531
-2.8080201 3.2097399 12.2907
-3.6326499 0.61648202 11.8158
-2.86115 3.21644 12.2953
-3.5641899 0.603558 11.859
-2.96803 0.761563 12.1186
-3.8422 1.34588 11.3527
-3.1919899 0.94097799 11.6333
-3.6291499 0.59958702 11.8291
-3.61024 0.59965402 11.8395
-4.1169 2.1797299 10.7726
-3.63674 0.63011199 11.7744
-3.31967 1.56522 11.3205
-2.83287 3.20012 12.3022
-4.0998101 2.1859 10.7875
-2.8346901 3.2283499 12.2875
-3.47946 1.53534 11.2454
-3.4716101 1.55571 11.2445
-3.1423399 1.13352 11.6893
-4.1150599 2.17678 10.8063
-2.88767 3.21278 12.3109
-3.3449099 1.22699 11.4653
-2.7989399 3.2307501 12.2763
-3.77408 0.38273901 12.0468
-2.7769799 3.21929 12.2825
-3.2023799 0.92836303 11.6484
-3.80935 1.27926 11.4276
-3.81302 1.25337 11.3945
-3.1677799 1.15284 11.6519
-3.62464 1.1285599 11.567
-4.07516 2.1874101 10.801
-3.809 1.29522 11.4252
-3.82974 1.3595901 11.3753
-3.5992899 2.0820301 10.8362
-3.5849199 2.0985799 10.8352
-3.6495099 1.83046 11.0094
-3.9302101 2.2153399 10.9133
-2.7050099 3.2726901 12.2049
-3.70207 1.8468699 11.0488
-3.8508699 1.98175 11.0955
-3.4889801 1.67531 11.1815
-3.3843999 1.16091 11.4998
-4.08042 2.09746 10.8645
-3.5424399 0.47622201 11.9328
-3.60553 1.61938 11.2435
-2.8870101 3.1966 12.3365
-2.75897 3.2065301 12.3253
-3.6873801 2.12869 10.8645
-2.8074601 3.1937799 12.3165
-3.8139 1.33108 11.4076
-3.27616 0.71850902 11.8593
-4.1216798 2.07213 10.8464
-3.3717599 1.21842 11.4913
-2.8607099 3.2007599 12.3214
-4.1104498 2.15554 10.8215
-3.9677899 1.76044 11.0781
-2.9147799 3.20767 12.3265
-3.98245 2.2077401 10.8595
-2.7873001 3.2023699 12.3414
-3.4051001 1.15451 11.5103
-2.77442 3.2509999 12.2421
-2.58377 3.2943699 12.1965
-3.38551 1.25243 11.4677
-2.83481 3.1904099 12.3325
-4.0823698 2.11726 10.851
-3.9472201 2.32126 10.8333
-2.8858399 3.1793499 12.3611
-2.5328 3.2896399 12.1939
-4.1008501 2.0763199 10.8586
-3.2660401 1.51073 11.4124
-3.8741 2.12082 10.969
-3.86778 2.1061599 10.9843
-3.55214 1.1645 11.5621
-3.4551001 1.99169 11.3017
-2.50686 3.27862 12.2063
-3.5555899 0.45175001 11.9358
-2.7272999 3.26057 12.2131
-3.4707301 1.39686 11.3613
-3.4692099 1.41179 11.345
-2.90418 3.15661 12.362
-2.55757 3.28388 12.2068
-2.8605399 3.18577 12.3478
-3.60553 2.1041701 10.8241
-4.1054602 2.0339701 10.8731
-2.5327401 3.27314 12.2193
-3.2948501 0.75642997 11.7974
-3.64397 2.0613401 10.8215
-3.02881 0.99215698 11.9755
-3.0274301 0.97681701 11.9595
-3.3833301 1.12167 11.5138
-3.27457 1.3381701 11.4376
-3.4977601 1.68811 11.1601
-2.7516501 3.2592399 12.2316
-3.42855 1.21479 11.4851
-3.9767201 2.2760201 10.8617
-3.55426 0.439603 11.9489
-3.4039199 1.24344 11.4786
-2.7321701 3.2587399 12.2471
-2.9689 0.91146702 12.1303
-2.98471 0.89804697 12.1384
-3.40485 1.13516 11.5169
-2.60987 3.26933 12.233
-2.55652 3.26561 12.2309
-3.5588901 2.1817901 10.8284
-3.2237 1.48769 11.7251
-3.2155001 1.46953 11.7351
-3.5514801 2.0125401 10.9106
-3.0696199 0.96075398 11.936
-3.07862 0.97848701 11.9259
-2.63325 3.25998 12.2431
-3.48525 1.26039 11.3204
-3.3584199 1.80152 11.2745
-2.6092801 3.2867899 12.2089
-2.77789 3.2423601 12.2683
-3.78988 2.0757699 10.8962
-3.04478 0.68879199 11.9671
-3.55018 2.1159301 10.8475
-3.55515 2.21099 10.8261
-3.6220801 2.2283299 10.7367
-3.63026 2.20224 10.7381
-3.7314501 2.0778601 10.8391
-3.7323 2.0965199 10.8268
-3.7044499 2.13134 10.8486
-3.71737 2.1135001 10.8447
-3.4284101 1.1959 11.4914
-4.1090102 2.2825699 10.7251
-3.2617099 1.57965 11.664
-3.6479199 1.6378 11.2877
-3.6470101 1.61544 11.2874
-3.57476 1.92217 10.9363
-2.7088201 3.2662599 12.2337
-2.6851799 3.2426901 12.2679
-3.5431199 2.0413699 10.9113
-3.5152099 2.0465901 10.9561
-2.6600599 3.26776 12.2303
-3.7160299 0.87197101 11.607
-3.5427599 1.40336 11.3156
-2.70871 3.23279 12.2781
-2.58321 3.2771101 12.2198
-3.9312699 1.66181 11.1756
-3.6163001 2.0035601 10.8558
-3.5323901 2.0669301 10.9064
-2.68326 3.25966 12.2407
-3.8861301 2.19455 10.8961
-3.8865299 2.17957 10.9128
-3.63133 2.14219 10.7589
-2.73016 3.22118 12.2861
-3.5274601 2.0263 10.9321
-3.57182 1.95499 10.9399
-3.63449 2.1749699 10.7428
-2.66028 3.2388699 12.2834
-2.70856 3.24874 12.2549
-2.7095499 3.2167399 12.2987
-3.33114 1.71991 11.3079
-2.6868401 3.23084 12.294
-2.95913 0.874183 12.1544
-3.86081 2.4572999 10.6264
-3.1399601 0.77431703 11.8344
-2.6598499 3.2525699 12.2565
-3.7130401 1.96483 10.9307
-3.6969399 1.61388 11.3797
-3.5252099 1.9241199 10.9753
-3.66467 1.51618 11.3743
-2.61007 3.25388 12.2554
-3.50301 1.38327 11.3246
-3.5334599 1.94287 10.964
-3.5634501 1.93594 10.9521
-3.81986 1.2689 11.3591
-3.81986 1.2689 11.3591
-3.6398201 2.2193401 10.7177
-3.28598 1.08103 11.5487
-3.66046 1.72672 11.1499
-2.7550199 3.2328 12.2776
-2.78581 3.2134399 12.3121
-3.9080801 2.4713099 10.6236
-3.58178 1.57859 11.2248
-3.86289 2.4342599 10.6699
-3.7525201 1.0093 11.6088
-3.6584699 1.7033499 11.1805
-3.51372 0.821392 11.7613
-3.3094399 1.1230201 11.5625
-3.8105299 1.26835 11.4036
-3.8105299 1.26835 11.4036
-3.6830699 1.50705 11.3878
-3.80495 1.82997 11.2074
-3.71591 2.0745599 10.8686
-3.7164299 2.09519 10.8592
-3.66485 1.49902 11.3889
-3.63041 2.5248101 10.5133
-3.6652901 2.5069101 10.5648
-3.6549799 1.37095 11.4994
-2.7546 3.2145801 12.2982
-3.4454899 0.98626697 11.6388
-3.69487 1.49071 11.3995
-3.7133501 1.48773 11.3935
-3.26278 1.50363 11.6903
-2.7330699 3.21064 12.3107
-3.7038701 1.5067101 11.3849
-3.6575501 1.42285 11.4514
-3.7172301 1.61871 11.3849
-3.6835999 1.38893 11.4941
-3.48754 0.99885702 11.6728
-3.6661301 1.35386 11.5121
-3.2929399 1.06467 11.5777
-3.3007801 1.78207 11.5151
-3.8801701 2.0053101 11.0493
-3.3596699 1.04135 11.6453
-3.16485 1.18074 11.642
-3.6930001 1.40674 11.4864
-3.67803 1.42582 11.4542
-3.3073001 1.04158 11.6292
-3.82972 1.97622 11.0887
-4.02491 1.97435 10.9303
-4.0443501 1.96433 10.9238
-3.70245 1.50729 11.3853
-3.70926 1.52479 11.3745
-3.71137 1.52395 11.3736
-3.4008 1.05957 11.5935
-3.67401 1.37104 11.5011
-3.68484 2.52249 10.5599
-3.70434 1.47167 11.4077
-3.7238801 1.50902 11.3987
-3.60413 1.86127 10.9778
-3.5934401 1.86362 10.9979
-3.0973301 1.07848 11.7387
-3.2496099 1.62402 11.6395
-3.4595201 1.9850301 11.3647
-3.30551 1.10197 11.5402
-3.7111599 1.94122 10.9265
-3.4814799 0.38758299 12.0454
-3.7174201 1.91954 10.9225
-3.41271 1.07704 11.5983
-3.5179999 1.48552 11.2876
-3.3866999 0.96746403 11.6799
-3.3924 1.0404299 11.5894
-3.69681 1.45636 11.4256
-3.6998799 1.4243799 11.4409
-3.1061399 1.11577 11.9371
-3.9026 1.60139 11.1607
-4.06429 2.0232201 10.8938
-3.3947501 1.9135799 11.4589
-3.35847 0.43746001 12.133
-3.8006301 1.2149 11.4932
-3.62919 1.72662 11.156
-3.2056899 1.3615 11.4959
-3.40833 1.09631 11.5832
-3.4856501 2.3727601 11.1448
-3.4732001 2.3894801 11.135
-3.2986701 1.02475 11.6237
-3.9529901 2.12638 10.8925
-3.89309 2.0389199 11.021
-3.8769801 2.08656 10.9764
-3.49524 0.71248299 11.8751
-3.49524 0.71248299 11.8751
-3.6893899 1.7390701 11.1933
-3.68841 1.71603 11.1941
-3.4991901 0.38664201 12.0493
-3.4337299 1.92178 11.3698
-3.3662601 0.416439 12.1331
-3.5053401 0.35184199 12.0455
-3.8817301 1.9115 11.1247
-3.42591 1.09584 11.5704
-3.6582301 1.5319 11.3999
-3.4494901 1.08208 11.6008
-3.4806199 1.18197 11.5093
-3.35899 0.41518101 12.1378
-3.44012 0.95860898 11.6928
-3.2139399 1.3834701 11.7655
-3.63587 1.63896 11.1455
-3.9183199 2.18102 10.94
-3.91748 1.9923 11.0287
-3.4914601 0.36723301 12.0613
-3.7891901 1.1822701 11.5232
-3.73137 1.48856 11.3993
-3.32638 1.53689 11.3028
-3.43471 1.08293 11.6192
-3.7827699 1.7601399 11.2528
-3.7962999 1.78987 11.2429
-3.5378599 0.36213699 12.0624
-3.79024 2.0589399 10.9123
-3.79022 1.82252 11.2103
-3.7783401 1.80687 11.2535
-4.0759602 1.99573 10.8106
-3.4683101 1.06672 11.619
-3.7817299 1.81443 11.2266
-3.1219201 0.362984 12.0512
-3.7786601 1.79686 11.235
-3.4642 0.367661 12.0472
-3.8967199 2.1621799 10.9463
-3.30761 1.11871 11.5147
-3.2470601 1.48585 11.7
-3.75035 2.1119101 10.827
-3.7502 2.09497 10.8431
-3.53685 0.338366 12.0606
-3.3820601 1.0358599 11.656
-3.54213 1.1664701 11.5941
-3.8080201 2.09026 10.899
-5.6628599 2.6534801 10.3689
-3.8499501 0.94943899 11.7277
-3.51017 0.38533401 12.0089
-3.70964 1.64963 11.2935
-3.4586501 1.03142 11.6351
-3.4586501 1.03142 11.6351
-3.7999401 1.8072799 11.2364
-3.9800601 1.83488 11.0679
-4.06914 2.3756199 10.6955
-3.02861 0.72729999 11.9342
-3.1289101 1.10796 11.6852
-4.0548902 2.398 10.7045
-4.0393901 2.37657 10.7146
-3.4494801 2.24405 11.2258
-3.84042 1.25975 11.411
-4.0949998 2.0420001 10.8241
-3.78935 1.05379 11.5314
-3.7999499 1.80758 11.2351
-3.46029 1.03576 11.6324
-3.46029 1.03576 11.6324
-4.0845699 2.39557 10.6875
-3.51176 0.32387301 12.0625
-3.53455 1.8193901 11.0168
-3.2035201 0.93081999 11.6969
-3.8185599 1.2406501 11.4276
-3.7701499 1.7674201 11.2521
-4.1012802 2.3736999 10.6829
-3.68066 0.69008797 11.7302
-3.8103001 1.79681 11.2302
-3.79564 1.2697999 11.4578
-3.5938101 2.4045601 11.0331
-3.39979 1.0182199 11.6677
-3.4534099 1.01518 11.6496
-3.4534099 1.01518 11.6496
-3.3583601 1.0019 11.6864
-3.5571599 1.2015899 11.5731
-3.7936599 0.92539799 11.6891
-3.69187 0.95572001 11.5914
-3.9895401 1.7747 11.0589
-4.1159101 2.39397 10.6719
-3.4724901 0.33571199 12.0896
-3.7562699 1.6617301 11.296
-3.2939701 1.6929801 11.5843
-3.0591099 0.68370599 11.9375
-3.05914 0.68931299 11.9111
-3.78618 1.04017 11.609
-3.78618 1.04017 11.609
-3.0381999 1.03302 11.9914
-3.60236 0.67562997 11.792
-3.76738 1.75006 11.2602
-3.4268501 1.78414 11.1144
-3.1840301 0.90457898 11.7171
-4.0019102 1.87718 11.0367
-3.0367601 0.89885402 11.9714
-3.47016 1.00639 11.6722
-3.24575 1.52442 11.7091
-3.5302701 0.31997699 12.0499
-3.39328 0.98360199 11.6674
-3.5569999 1.02786 11.6153
-3.5667701 1.06752 11.6041
-3.7957201 1.2914 11.4415
-3.5541301 1.0536799 11.6209
-3.1558001 0.930305 11.6743
-3.14674 0.92531502 11.7101
-3.4567699 0.95353299 11.715
-4.0150099 1.84262 10.9809
-3.10391 0.86275703 11.8233
-3.27107 1.60192 11.6571
-4.1008301 2.0122399 10.8492
-3.14464 0.94013101 11.6882
-3.49106 0.99052697 11.6958
-3.5417399 1.03977 11.6366
-4.0195899 1.85401 10.953
-3.7818999 1.67708 11.2665
-3.6110301 2.51139 10.5176
-3.2616799 1.54246 11.6723
-3.34517 1.26952 11.439
-3.67805 1.26603 11.578
-3.50617 0.282608 12.1295
-3.39886 0.95052201 11.6838
-4.0299201 1.81991 10.9857
-3.2104001 1.32515 11.568
-3.21316 1.34156 11.5507
-3.61376 1.1937799 11.565
-3.5023899 0.308943 12.0807
-3.7806699 1.03587 11.5378
-4.0232701 1.87287 11.0189
-3.6016099 1.75545 11.1279
-3.09776 0.370884 12.0393
-3.0413699 0.37533599 12.0358
-3.0952401 1.0999399 11.9603
-3.3001699 1.7612 11.5271
-3.1613801 0.91509199 11.7043
-3.9751101 1.76337 11.1091
-3.0264599 0.369847 12.0538
-3.2721601 1.69435 11.5741
-3.8978801 1.51829 11.3264
-4.0271902 1.98158 10.9532
-3.18297 0.92211998 11.7016
-3.1403201 0.898525 11.7233
-3.9567299 1.7945499 11.0756
-4.15376 2.15663 10.7791
-4.01192 1.82165 11.038
-4.00986 1.80334 11.0536
-3.1602199 0.89853603 11.7168
-3.0384099 0.64718503 11.9525
-3.0619299 0.3626 12.0421
-3.9765899 1.82201 11.0692
-3.4287 0.94995201 11.7023
-3.05251 0.91767299 11.9497
-4.0097299 1.82678 11.0038
-3.03774 0.61075699 11.9744
-3.1440899 1.1012 11.6676
-3.1455801 0.78631502 11.8191
-3.25332 1.19862 11.4788
-3.5789101 0.61477202 11.8401
-3.1176801 0.81029201 11.8289
-3.06739 0.35969499 12.039
-3.45277 0.53478998 12.0362
-3.03444 0.34134999 12.0527
-4.00319 1.85068 11.0591
-3.0209701 0.35610899 12.0603
-3.56248 0.94610202 11.6715
-3.25349 0.49112299 12.0018
-3.2519 0.50842899 12.0086
-3.0808101 1.0845799 11.9724
-3.12486 0.78799498 11.8191
-3.13482 0.88283598 11.7392
-3.49371 0.26642901 12.1289
-3.73627 1.8641 11.0604
-3.46559 0.51183802 12.0698
-3.1035299 0.82717198 11.7523
-3.06564 0.38431501 12.0356
-3.07458 0.46308199 11.9732
-3.06727 0.37938499 12.0258
-3.1197 1.2187999 11.9087
-3.1348 1.23544 11.8992
-3.03601 0.35818601 12.0391
-2.9839599 0.36112201 12.0794
-3.6231 1.42229 11.5069
-2.98224 0.511204 12.1256
-3.6586499 1.4635201 11.4777
-3.95854 2.24279 10.7417
-3.4530201 0.94182402 11.7217
-3.06234 0.342118 12.0419
-3.2809 0.97480798 11.6377
-3.02546 0.33864099 12.0856
-3.0231099 0.86016101 11.9992
-3.0271399 0.83679402 12.0052
-3.5824001 1.21302 11.5666
-3.0023201 0.61035401 12.0528
-2.993 0.63497502 12.0572
-4.1572299 2.2673399 10.7074
-4.1433702 2.2676101 10.7276
-3.2002599 0.89511102 11.7158
-3.7233701 1.71478 11.2442
-3.0393901 0.30268201 12.0904
-3.6752501 1.50324 11.4632
-3.18484 0.79189199 11.7787
-3.1916201 0.82775003 11.7362
-3.6812401 1.46672 11.4735
-3.50336 1.57152 11.2402
-3.16394 0.80932099 11.7547
-3.2310901 1.50439 11.7018
-3.2188301 0.481482 12.0103
-3.0568099 0.345429 12.0458
-3.09395 0.32727799 12.0687
-3.6477301 1.42243 11.5081
-3.44329 1.22719 11.4554
-3.6776099 1.57813 11.3415
-3.2760601 0.501625 12.0015
-3.2108099 0.88453799 11.6995
-3.99705 2.32634 10.8068
-4.0058198 2.31091 10.8238
-3.63606 1.43643 11.494
-3.0825601 0.348528 12.0353
-2.7550099 3.2504799 12.2577
-3.1956501 0.724922 11.8781
-3.0636301 0.32442501 12.0587
-3.75123 2.12868 10.809
-3.18103 0.80944902 11.7362
-3.04228 0.765504 11.8851
-3.20998 0.72548598 11.8747
-3.6554999 1.5674 11.3524
-3.1832299 0.70537001 11.8744
-3.2236099 0.85052699 11.7312
-3.1967001 0.70555198 11.8705
-4.0085802 1.85737 11.0066
-3.0750599 0.423421 11.9951
-3.69224 1.69069 11.2421
-3.18258 0.72471702 11.8877
-3.4750099 0.93578303 11.7349
-3.15944 0.73789603 11.8848
-3.6365399 0.50515801 11.9985
-3.2256 0.86644 11.7036
-3.30109 0.96719301 11.6315
-3.88937 2.07974 11.0129
-3.24315 0.456736 12.0158
-3.6867399 1.67221 11.2488
-3.20983 0.70574301 11.8674
-3.66557 1.62405 11.2751
-3.2046399 0.80988598 11.7409
-3.24475 0.85074103 11.7305
-3.2223301 0.72566098 11.8703
-3.22208 0.64726698 11.8766
-3.2393401 0.86537999 11.6824
-4.0345302 1.8019 11.0222
-3.2290101 0.62797701 11.8811
-3.21574 0.686171 11.8677
-2.9704599 0.51793998 12.1285
-2.96015 0.61171502 12.0502
-3.21209 0.66660798 11.8752
-3.2191401 0.64737099 11.8772
-2.9516301 0.593068 12.0657
-3.85322 2.0796199 10.9783
-3.1371701 1.19885 11.664
-3.8191199 0.97554398 11.6224
-3.62691 1.99924 10.8922
-3.6128099 2.0191801 10.8877
-2.9237299 0.498539 12.1357
-3.2353499 0.83332199 11.7362
-3.0748899 0.275774 12.1253
-3.79476 1.0219001 11.6014
-3.3757901 0.949512 11.6814
-3.7695799 1.02142 11.5976
-3.2362599 0.68618798 11.874
-3.24804 0.62805301 11.8858
-3.2580199 0.68615401 11.8788
-3.4593999 1.18171 11.5088
-3.68665 1.67208 11.2498
-3.25647 0.64753401 11.8857
-3.2569699 0.83348 11.7375
-3.80845 1.96755 11.0647
-3.2678001 0.66684198 11.8868
-3.0776 0.97180802 11.8081
-3.0827899 0.98925197 11.791
-3.07848 0.647488 11.9293
-3.03421 0.52266002 11.988
-3.6370499 0.42748901 12.0343
-3.2758999 0.84223402 11.7312
-3.37868 0.90483201 11.7026
-3.9260001 1.44674 11.2805
-3.1900201 0.59215403 11.8846
-3.4830401 0.81282997 11.7686
-3.18224 0.61025703 11.884
-3.1551299 1.13124 11.6528
-3.72211 0.86058301 11.6009
-3.19999 0.61039603 11.8822
-3.01999 0.51005697 11.9937
-3.1919401 0.628483 11.8802
-3.2294099 1.30599 11.5208
-2.9979999 0.52400798 12.0911
-3.0405099 0.82130802 11.9907
-2.9605401 0.54282802 12.1377
-3.0162001 0.58491802 11.9736
-3.42311 0.93020803 11.7002
-3.6238 0.75054401 11.7606
-3.0079501 0.48509499 12.0792
-3.01946 0.291675 12.132
-2.9944999 0.52354598 12.1184
-4.0509901 1.98555 10.9462
-3.40117 0.91766101 11.7021
-3.70611 1.60562 11.3922
-3.6904199 1.62852 11.3136
-3.19946 0.60916501 11.8819
-3.68963 1.62923 11.3159
-3.1192901 0.61019999 11.875
-3.2459199 0.66687399 11.8764
-3.2089601 0.59116602 11.8888
-3.37977 0.88606501 11.7214
-3.2358999 1.31796 11.4936
-3.0682299 0.293051 12.0947
-3.76581 1.6924599 11.279
-3.7455499 1.68153 11.2892
-3.2125399 1.26298 11.5909
-3.2980101 1.13562 11.4922
-3.1568501 0.57468301 11.9444
-3.7246101 1.42347 11.4497
-3.5713201 1.53549 11.2369
-3.67397 1.66198 11.2635
-3.1101401 0.297167 12.118
-3.8792801 1.99497 11.0843
-3.1392601 0.61055398 11.8799
-3.11253 0.40763101 12.0164
-3.3719001 1.6416399 11.2332
-3.76985 2.1621101 10.7942
-3.1115899 1.0882601 11.9343
-3.71328 1.62264 11.3823
-3.1389101 0.646752 11.8734
-3.3996301 0.89849299 11.7143
-3.22667 0.59133297 11.8866
-3.6872799 0.40913501 12.0594
-4.1621499 2.2476101 10.6924
-2.9175 0.49127001 12.2174
-3.62111 0.77167302 11.756
-3.42186 0.911156 11.7123
-3.1294401 0.59258902 11.8747
-3.17186 0.59233302 11.8821
-3.22051 1.36094 11.5325
-3.68452 1.61849 11.3379
-3.6880701 1.52236 11.3771
-3.10869 0.62837899 11.871
-3.7007401 1.59052 11.4004
-3.3115399 0.71658403 11.8727
-3.55934 2.49318 11.0324
-3.15066 0.59234798 11.8845
-2.9393001 0.48461601 12.1847
-3.1061499 0.95875299 11.9225
-3.1289699 0.62848502 11.8757
-3.1998 1.43499 11.78
-3.3229301 1.7619801 11.5465
-3.3173101 1.7438 11.5633
-3.4827001 2.40292 11.1047
-3.4015701 0.88017601 11.735
-3.69556 1.53978 11.3684
-3.4544599 0.92490101 11.7379
-3.14956 0.62853497 11.8796
-3.4985199 1.97014 10.9783
-3.44701 0.923792 11.7201
-3.86941 1.38199 11.278
-3.3320701 0.71660399 11.8679
-3.2155001 1.51598 11.7241
-3.4229701 0.89240199 11.7315
-3.7553201 1.5218101 11.3642
-3.1619999 0.61016601 11.8731
-2.96696 0.80476099 12.0595
-2.97416 0.79719198 12.0363
-3.4895301 1.5194 11.2696
-2.9851999 0.90806103 11.972
-3.00828 0.91878903 11.9727
-3.95136 1.6049 11.1059
-3.1710501 0.62847 11.8769
-3.4486401 0.90558898 11.7381
-3.26998 0.709369 11.8547
-3.0659599 0.66861099 11.9109
-3.58654 1.6596299 11.2185
-3.1405699 1.1963 11.849
-3.30812 0.69662201 11.8786
-3.1132901 0.424373 11.9941
-3.14169 1.0502599 11.6909
-3.7230301 1.53754 11.3678
-3.18186 0.64716101 11.8726
-3.88327 1.5217201 11.3562
-3.1064401 0.27803999 12.1338
-3.48967 0.91957003 11.7854
-3.48983 0.919182 11.7859
-3.9151001 2.3652999 10.7923
-3.91766 2.3815701 10.7727
-3.66413 1.52277 11.4657
-3.4900501 0.920174 11.7853
-3.3352201 0.845083 11.7456
-3.80196 2.4379499 10.6414
-3.2616401 0.609052 11.8723
-2.885 0.52159899 12.1697
-3.65658 1.45626 11.5097
-3.61166 1.8848701 10.9583
-4.0030499 1.77799 11.0805
-3.32583 0.81742501 11.7882
-3.3461101 0.82916999 11.7877
-3.3662 0.83839202 11.7807
-3.1794701 0.93338799 11.639
-3.5537701 0.65588301 11.8606
-3.1196401 0.72134501 11.8697
-3.1196401 0.72134501 11.8697
-3.1196401 0.72134501 11.8697
-3.1196401 0.72134501 11.8697
-3.46348 0.88847101 11.792
-2.89815 0.50504303 12.1434
-3.4217701 0.87322402 11.7442
-3.4634399 0.88885498 11.7919
-3.38341 0.84910899 11.7622
-3.34465 0.81065798 11.7978
-2.8961599 0.536264 12.1428
-3.3663099 0.82018501 11.7953
-3.33426 1.7809401 11.5331
-3.4045401 0.86180598 11.7573
-3.71787 1.68902 11.256
-3.3241 0.79772002 11.8009
-3.4929299 0.90112197 11.8076
-3.4929299 0.90112197 11.8076
-3.4929299 0.90112197 11.8076
-3.4930601 0.90072501 11.808
-3.4930601 0.90072501 11.808
-3.4930601 0.90072501 11.808
-3.49158 0.90097201 11.8042
-3.49158 0.90097201 11.8042
-3.49158 0.90097201 11.8042
-3.4932301 0.90077198 11.8084
-3.4932301 0.90077198 11.8084
-3.4932301 0.90077198 11.8084
-3.62204 1.84781 11.0039
-3.3808999 0.84700501 11.7605
-3.2995 0.75497699 11.8247
-3.2868099 0.74836498 11.8487
-3.4902599 0.90128702 11.8009
-3.4902599 0.90128702 11.8009
-3.4902599 0.90128702 11.8009
-3.1914599 0.92338502 11.6574
-3.58075 0.687222 11.8493
-3.2872901 0.72242701 11.8508
-3.39082 0.83096302 11.798
-3.10829 0.33705899 12.0614
-4.0858998 2.3536301 10.6918
-3.5322399 0.62011701 11.8654
-3.36483 0.80153102 11.8053
-3.4592299 0.86770999 11.7965
-3.447 0.905303 11.734
-3.4470301 0.90491903 11.7341
-3.48366 1.19034 11.5489
-3.27456 0.63466001 11.8891
-3.0486 0.20575599 12.1863
-3.3892601 0.81143802 11.8099
-3.3877499 0.829597 11.7917
-3.7785499 1.2088701 11.4977
-3.40679 1.28532 11.4293
-3.41904 2.1893001 11.2642
-3.13538 1.1653301 11.8632
-3.1233399 1.18349 11.8774
-3.58881 0.70434302 11.8398
-3.7243199 1.47333 11.4195
-3.34495 0.79175597 11.8114
-3.6910801 1.40853 11.456
-2.8838999 0.54876 12.2189
-3.3605499 1.72217 11.2945
-3.4289601 0.85519803 11.7766
-3.098 0.95055699 11.7823
-3.0978501 0.97525901 11.774
-3.26616 0.71981901 11.8894
-3.34319 0.77333099 11.8222
-3.3637099 0.78293598 11.8166
-3.4470501 0.90530998 11.7341
-3.4470501 0.90530998 11.7341
-3.4470601 0.90492398 11.7342
-3.4470601 0.90492398 11.7342
-3.3215001 0.76384801 11.8246
-3.5532501 0.62021297 11.8601
-3.6932399 1.36932 11.4988
-3.4124999 0.84381801 11.7934
-3.03426 0.704579 11.9597
-3.2948401 0.70460099 11.8811
-3.6962199 1.6991 11.2259
-3.3250699 0.74518901 11.8463
-3.70204 1.38491 11.482
-3.4925499 0.920726 11.79
-3.4919901 0.92018503 11.7888
-3.5262499 2.16377 10.9016
-3.0239999 0.80734098 12.0101
-3.0106399 0.823309 12.026
-3.4342699 0.835558 11.8082
-3.4879799 0.87953502 11.8115
-3.0305901 0.205525 12.1992
-3.39621 0.794047 11.8415
-3.1247599 1.06845 11.7155
-3.3925099 0.775047 11.8461
-3.41224 0.82403898 11.8097
-3.39624 0.79392701 11.8416
-3.54477 2.0875599 10.8932
-3.5160601 2.1804099 10.9268
-3.3429501 0.75463903 11.8354
-3.4919901 0.90174502 11.8043
-3.4920001 0.90128499 11.8044
-3.5729699 1.25946 11.5531
-4.00737 1.7233 11.0896
-3.5271399 0.445389 12.1028
-3.51215 2.1684501 10.9529
-3.43852 0.83741498 11.8167
-3.30144 0.45485601 12.0837
-3.3624401 0.76419699 11.8274
-3.5139201 0.91226101 11.8004
-3.1749001 1.34554 11.7354
-3.4372599 0.81673098 11.8303
-3.4040401 1.27625 11.4507
-3.6156001 0.58172399 11.8235
-2.97804 0.77559698 12.0942
-2.6098499 3.2360899 12.2765
-3.31125 1.68689 11.282
-3.87005 2.4119599 10.717
-3.42029 0.80590498 11.8447
-3.3557601 0.37772 12.1543
-3.37132 0.38881701 12.1678
-3.3194599 0.42492199 12.1523
-3.5964999 1.9787199 10.9244
-3.6070499 1.95476 10.9284
-2.92575 0.70974702 12.2285
-3.5152299 0.91302598 11.8035
-3.19225 0.57239902 11.8764
-3.4886999 0.86057401 11.8276
-3.5808001 1.2535501 11.5388
-3.3257401 0.72614002 11.8604
-3.5864501 1.27483 11.5355
-3.39186 0.75636601 11.8585
-3.2164299 0.57272798 11.8896
-3.37481 0.762097 11.8526
-3.34413 0.73566198 11.8509
-3.37128 0.74629998 11.8638
-2.9169199 0.693609 12.2372
-3.2239101 1.5522701 11.6756
-3.35534 0.72724199 11.8718
-3.7421501 1.53756 11.358
-3.20696 1.3528 11.5757
-3.6135001 1.74075 11.1006
-3.8673401 2.19768 10.9161
-3.57408 1.24017 11.5662
-3.3696101 0.36274701 12.175
-3.3696101 0.36274701 12.175
-3.3696101 0.36274701 12.175
-2.95468 0.67471403 12.1446
-2.95468 0.67471403 12.1446
-3.30004 0.41743401 12.1417
-3.17694 1.25121 11.7833
-3.2334499 1.05655 11.5595
-3.9762299 2.3508301 10.8052
-3.3492601 0.70945299 11.8812
-3.42433 1.25132 11.4677
-3.2032399 1.1811301 11.5994
-3.11497 0.991741 11.7486
-3.11415 1.01709 11.7402
-3.32777 0.69624799 11.8798
-3.6055601 2.4974201 10.5455
-3.3491199 0.40003899 12.154
-3.3757501 0.72061098 11.8776
-3.01826 0.88764399 12.0033
-3.61659 1.2678601 11.5449
-3.1159501 0.56194597 11.891
-3.3443301 0.42248899 12.1376
-3.2632699 0.96520799 11.6268
-3.35322 0.70726901 11.8778
-3.4282999 0.81667501 11.8115
-3.13516 0.56484002 11.9158
-3.34535 0.339441 12.1896
-3.8254099 1.3487 11.4054
-3.4354401 0.81935602 11.8298
-3.6059101 0.78272301 11.7711
-3.1115999 0.95877898 11.753
-3.1098499 0.93273002 11.7592
-3.58231 1.23274 11.5519
-3.39955 0.73538601 11.8837
-3.5594101 0.908095 11.7714
-3.3127601 0.67787498 11.8857
-3.0651901 0.63352501 11.9427
-3.48756 0.84323698 11.838
-3.61659 1.26803 11.5445
-3.5982699 1.25111 11.5468
-3.3308599 0.38808501 12.1622
-3.60009 1.23037 11.5606
-3.3208201 0.369858 12.1874
-3.00212 0.94497198 11.9797
-3.2384701 0.93921 11.6472
-2.98985 0.79142302 12.0702
-3.6830499 1.31901 11.5262
-3.2275901 1.4391299 11.7055
-3.48786 0.32089701 12.0737
-3.4398799 0.802145 11.8547
-3.46983 0.81142598 11.8743
-3.3380101 0.38575399 12.1586
-3.4043801 1.1157 11.5261
-3.3419499 0.36278999 12.1784
-3.6653199 1.39676 11.463
-3.3464601 0.68873799 11.8869
-3.3332801 0.364802 12.1741
-3.3200099 0.65851802 11.902
-3.4398999 0.80075097 11.8545
-3.41642 0.75055599 11.8744
-3.8594501 1.0185699 11.5789
-3.72597 1.4503599 11.4415
-3.47857 0.277834 12.1039
-3.4754701 2.09799 11.0792
-3.5636201 2.3259101 11.0717
-3.36847 0.681714 11.9029
-3.2123699 1.00741 11.6074
-3.0994699 1.14081 11.9294
-3.79986 1.88459 11.1488
-3.8468499 1.31853 11.3771
-3.33285 0.40796101 12.1518
-3.6166401 0.79306799 11.7491
-3.47615 0.30557001 12.0893
-3.3090501 0.387784 12.1777
-3.6561699 1.38148 11.4768
-3.1011701 1.05847 11.9328
-3.3725901 0.700239 11.8848
-3.2993701 0.37006599 12.1856
-2.4585099 3.2806799 12.208
-3.47469 2.0671201 11.0799
-3.28947 0.351989 12.1975
-3.3502901 0.66862601 11.9096
-3.2139101 0.98142999 11.6049
-3.4407499 0.78338701 11.8684
-3.6163099 1.24659 11.5593
-3.4911799 2.1140001 11.0568
-3.4926701 1.08242 11.6316
-3.67012 1.28427 11.5552
-2.97153 0.68529701 12.0959
-3.3803101 1.08302 11.5479
-3.6503 1.28634 11.5414
-3.2409599 1.50746 11.5813
-3.91259 1.4261 11.2864
-3.3966401 0.71435201 11.8909
-2.48153 3.26916 12.2167
-3.3124199 0.35102499 12.1998
-3.2060299 1.3451999 11.6046
-3.3810999 0.68106002 11.9204
-3.62024 1.23658 11.57
-3.6210899 1.2156399 11.5883
-3.0664201 1.06774 11.9566
-3.48349 0.79959202 11.8641
-3.6416299 1.25357 11.5724
-3.64114 1.23285 11.5883
-3.1677301 1.37156 11.7534
-3.66062 1.2496901 11.5851
-3.2771001 0.62725902 11.8908
-3.6814799 1.29915 11.5382
-3.4761701 0.30560699 12.0901
-3.4673901 0.792193 11.8797
-3.45402 2.1070099 11.1315
-3.7645199 0.96223998 11.6167
-3.8626399 0.99046999 11.6112
-3.1252699 0.943501 11.7349
-3.6561999 1.22931 11.6042
-3.5351501 2.4586699 11.0449
-3.5506101 2.4356599 11.0464
-3.46382 0.772825 11.8821
-3.48068 1.97726 10.9978
-3.19367 0.96583402 11.6011
-2.8322301 3.2365999 12.2615
-2.5069799 3.26373 12.2301
-3.4964199 0.33943599 12.0759
-3.6345999 1.21182 11.6006
-3.6024201 2.4672301 11.0197
-3.6699901 1.2642699 11.5722
-3.08986 0.99421197 11.9064
-3.4725499 1.12198 11.5991
-2.9280701 0.68540901 12.2495
-3.50969 1.07727 11.6404
-3.2041199 1.2934099 11.6231
-4.1273899 2.2546501 10.7458
-3.3923299 0.70248699 11.9006
-3.35004 0.52423197 12.0684
-3.81249 1.21977 11.4766
-3.2786701 1.02538 11.6281
-3.35782 0.52210897 12.068
-3.52542 2.4370999 11.062
-3.02404 1.04768 12.0769
-3.19503 0.53190601 11.9462
-3.5723701 0.64738202 11.8226
-3.6702099 1.24413 11.5894
-3.7042401 0.83717602 11.577
-2.5827899 3.24506 12.2692
-3.32248 0.61012799 11.9333
-3.33617 1.12675 11.4942
-3.5457799 0.62985897 11.8415
-3.3515899 0.62488598 11.9457
-3.16557 0.94530201 11.654
-3.63726 1.1885999 11.6173
-3.3889 1.88252 11.1912
-3.6773601 1.24511 11.5928
-3.1523099 0.956357 11.6768
-3.63463 1.19056 11.6163
-3.3958099 1.84554 11.2165
-3.65572 1.18796 11.622
-3.45976 2.0827701 11.1024
-3.4113801 1.87928 11.1773
-3.6714699 1.2244 11.6087
-3.5077901 2.4583499 11.0593
-3.3861401 1.86901 11.2141
-3.4786301 2.00774 11.0058
-3.4716001 1.9867001 11.0225
-3.566 0.631805 11.8377
-4.0894799 2.1744399 10.8536
-2.9906099 0.88568199 12.0011
-2.9244399 0.72824001 12.1594
-4.0093799 1.9014 11.0135
-3.65062 1.20707 11.6069
-3.6138401 1.64158 11.2581
-3.4482901 2.0471499 11.0996
-4.1231999 2.3124001 10.6811
-2.9542201 0.462816 12.1649
-3.6442599 2.5674 10.9
-3.61712 2.56106 10.8984
-2.9312501 0.73999798 12.1281
-3.5718701 0.96560299 11.6772
-3.50384 2.0717499 10.9507
-3.49318 2.0580699 10.9726
-3.4727099 0.97352302 11.7111
-2.9361801 0.74399799 12.1274
-4.1282501 2.22545 10.7743
-3.23294 0.53239501 11.8911
-3.0016401 0.91900402 12.1306
-3.2549601 0.428249 12.059
-3.0377901 0.76324898 11.9418
-2.8605001 3.2323999 12.2721
-3.51669 2.0518601 10.9271
-3.8231699 2.4651599 10.6326
-3.8110001 2.4570601 10.6085
-3.3445499 1.25894 11.4121
-3.3643 0.58539897 12.0142
-3.9951401 2.34074 10.7826
-5.6354299 2.7002101 10.334
-3.5020101 2.01455 10.9591
-3.4893701 2.0272901 10.981
-3.8220301 2.50315 10.5904
-3.37256 1.73479 11.2228
-3.55233 2.3031199 11.0842
-3.4349301 1.96654 11.2423
-3.3864 1.28181 11.4099
-3.27496 1.04001 11.602
-3.5836699 2.53929 10.9998
-3.5778401 2.5511501 10.9747
-3.3563001 1.12683 11.5031
-3.86145 2.1301701 10.9193
-3.13976 0.97028399 11.7021
-3.15341 0.88264298 11.7293
-3.51489 2.08356 10.9273
-3.5663099 2.5624299 10.9487
-3.5471399 2.56162 10.9697
-3.2544999 0.50611597 11.928
-3.1374099 0.84665602 11.7461
-3.0973899 0.84809202 11.7694
-3.60396 2.4344101 11.0192
-3.6005001 2.4400401 10.9914
-3.1256599 0.82722002 11.7466
-3.60111 2.5318401 10.9781
-3.5966599 2.5136499 10.9997
-3.0158401 0.76698899 11.9369
-3.03281 0.786174 11.9242
-3.7616301 2.0129299 10.9774
-3.24017 0.51927799 11.9421
-3.1132801 0.80679601 11.7449
-3.3704 1.7546099 11.2539
-3.1472499 0.86572498 11.7408
-3.3747599 1.78607 11.2532
-3.19258 0.84533101 11.7266
-3.4328699 0.57429302 11.9955
-3.20892 1.45303 11.7597
-3.3824501 0.54136801 12.0501
-3.46139 1.12797 11.5745
-3.5115099 1.55 11.2623
-2.9960999 0.41279 12.0514
-3.38252 0.541538 12.0502
-3.16471 0.86550498 11.7278
-5.6264801 2.6633699 10.4426
-3.4200699 0.56375301 12.0232
-3.43167 1.11771 11.5583
-3.2141099 0.83326602 11.7388
-3.4189 0.56297302 12.0241
-3.34424 1.75881 11.3068
-3.3814001 0.520509 12.0618
-3.5267601 0.47127801 11.9786
-3.39044 1.20867 11.4866
-3.4305699 1.15538 11.5181
-3.1480501 0.797656 11.8038
-3.2288101 1.31519 11.5499
-3.1561799 0.34608799 11.9461
-2.4570501 3.2627499 12.2322
-3.7405901 0.40057299 12.0338
-3.3815899 0.52106899 12.0621
-3.4031999 0.55250299 12.0436
-3.5335 2.3160901 10.9011
-3.54601 2.34163 10.9061
-3.1277299 1.00181 11.7198
-2.94401 0.44531801 12.1817
-3.5362501 0.49074101 11.9786
-2.5197201 3.20313 12.2377
-3.3573201 1.7755899 11.2851
-3.2757599 0.88770401 11.6857
-3.4143 0.54240602 12.026
-3.6119699 2.50454 10.9769
-3.30442 0.63848603 11.9044
-3.2922299 0.89718902 11.6726
-3.3715401 1.19789 11.4927
-3.4321001 0.55340499 12.0121
-3.32955 0.63881898 11.925
-3.6682799 1.55138 11.3644
-3.6331401 1.3679 11.5666
-3.38182 0.52107602 12.062
-3.38185 0.52124 12.0621
-3.3823099 0.50077301 12.0794
-2.9259 0.46908399 12.2174
-3.2937601 0.918809 11.6606
-3.44894 1.19792 11.5018
-3.37519 0.47072899 12.1294
-3.40236 0.53228199 12.0552
-3.6245799 1.34965 11.5734
-3.2112401 0.81540197 11.7434
-3.7937701 1.2146 11.5233
-3.4121101 0.522255 12.0341
-3.6306901 2.04265 10.8643
-3.4116199 0.77045798 11.8561
-3.29175 0.59231001 11.907
-3.7936499 1.21426 11.5207
-3.15119 1.3430001 11.8027
-3.2918301 0.59254301 11.9067
-3.2928801 0.88033801 11.6939
-3.3487599 0.50450301 12.1117
-3.36959 0.50463802 12.1061
-3.6877401 0.94798303 11.6587
-3.84691 2.3578601 10.7568
-3.8368001 2.3654101 10.7305
-3.2040601 0.79082102 11.7664
-3.1858001 0.79397601 11.7802
-3.3289499 0.63880599 11.9252
-3.6905 1.4476399 11.4638
-3.3104899 0.61668003 11.921
-3.3118 0.61680597 11.9228
-3.3802099 1.75133 11.1979
-3.35976 0.91346198 11.6956
-2.9061501 0.472895 12.2519
-3.2571001 0.54965502 11.9221
-3.9360299 1.47853 11.2477
-3.4013 0.51196998 12.0667
-3.62918 2.53268 10.9621
-3.6162701 2.5583701 10.9569
-3.4790299 2.4274299 11.0644
-3.33641 0.88580602 11.697
-2.8880301 3.2269001 12.2853
-3.61537 1.33174 11.5778
-3.2430699 0.47586101 12.024
-3.3619299 0.48751101 12.119
-2.5423 3.2049699 12.2562
-3.6510201 1.36608 11.5713
-3.40418 1.09712 11.5409
-3.5163701 2.1477399 10.924
-3.5897901 1.82403 11.0168
-3.64487 1.3883801 11.5406
-2.9225199 0.50441498 12.216
-4.0425601 1.9376301 10.7893
-2.9008901 0.45457101 12.2641
-2.9282701 0.42670199 12.2404
-3.66733 0.93323702 11.6987
-3.5745499 2.51737 11.0186
-4.1300302 2.28509 10.7048
-3.3556399 0.88932198 11.6998
-3.279 0.89852399 11.6612
-3.31424 0.89139199 11.6846
-3.39715 0.491229 12.0713
-3.36168 0.649441 11.9358
-3.0599899 0.82661402 11.9168
-3.5532801 0.92537498 11.6766
-2.4063699 0.61975402 12.758
-2.9347701 0.42922199 12.2124
-3.0132899 0.42327699 12.0334
-3.2636001 0.45527899 12.0297
-2.40868 0.63432097 12.7593
-3.31619 0.87618899 11.7094
-3.2755799 0.85713798 11.7018
-2.63308 3.23247 12.2987
-3.6444399 1.3322901 11.5494
-3.33934 0.60276699 11.9559
-3.26141 0.463633 12.0325
-3.6171401 2.4925201 11.0034
-3.5360601 2.21773 11.187
-3.19785 0.77509701 11.7682
-3.2339799 0.76285201 11.816
-3.1867599 1.3391 11.501
-3.1185 0.55655003 11.8902
-3.1185 0.55655003 11.8902
-3.1677799 0.86336702 11.7242
-4.1561999 2.286 10.6844
-3.2955301 0.850927 11.7186
-3.28578 0.82377201 11.7448
-3.90114 2.4449501 10.6473
-3.3850801 0.66101599 11.9289
-3.39149 0.93401998 11.6955
-2.36061 0.64874297 12.7759
-3.1168399 0.88699597 11.77
-3.3756499 0.882119 11.7097
-3.11833 0.541435 11.9367
-3.28213 0.788351 11.7545
-3.7520599 1.71716 11.2698
-3.5822401 1.31892 11.5593
-3.5822401 1.31892 11.5593
-3.0599699 0.82669199 11.9174
-3.0599699 0.82669199 11.9174
-2.86553 0.46165401 12.3229
-3.1169901 0.509655 11.9713
-3.9717901 2.3815701 10.753
-3.35392 1.68522 11.2429
-3.2548399 0.86173302 11.6818
-3.2548399 0.86173302 11.6818
-3.1369901 0.53297001 11.9565
-3.66032 1.3402801 11.5376
-3.0230601 0.53721398 11.9792
-3.27561 0.84044403 11.7327
-3.1062 0.90802097 11.7883
-3.5064299 2.10393 10.9526
-3.50366 2.09428 10.9807
-3.52987 2.18487 10.88
-3.3315001 0.55181003 12.0219
-3.8392899 2.45438 10.5882
-2.3979101 0.65903997 12.7567
-4.1441498 2.1896501 10.7797
-3.5232501 1.5789599 11.2612
-3.2715001 0.81653702 11.7429
-2.38515 0.682226 12.754
-3.15342 1.31445 11.8113
-3.0770199 0.57754499 11.8805
-3.1173501 0.52504998 11.9408
-2.3858099 0.63411599 12.7545
-3.27002 0.77276802 11.7728
-3.3122699 0.848028 11.727
-3.2549601 0.44685 12.0412
-2.87677 0.52603197 12.3615
-3.0980599 0.648489 11.8862
-2.8915999 0.47605801 12.2944
-2.88501 0.45776701 12.3097
-3.2955999 0.83366102 11.7459
-3.2988801 0.842659 11.7496
-3.16435 0.79667503 11.7855
-3.29476 0.80661398 11.7559
-2.8772399 0.440364 12.3263
-2.9802799 0.43291 12.1066
-3.2957001 0.48865101 12.0282
-5.5692101 2.68767 10.4539
-5.58392 2.6798699 10.4289
-3.30407 0.820189 11.7541
-3.1380501 0.53254002 11.9572
-4.1670599 2.36607 10.649
-3.09512 0.56837302 11.8971
-3.0929799 0.88721901 11.7764
-3.0018001 0.60311699 12.0599
-3.36358 1.7195899 11.2464
-3.1250701 0.559093 11.9025
-3.3773501 0.43461901 12.1513
-3.3579199 0.87176597 11.7234
-3.15692 0.52396202 11.9823
-3.74593 1.03245 11.6064
-3.3605599 1.71654 11.2473
-2.8858399 0.472974 12.2962
-3.4364901 0.51206499 12.0379
-4.16784 2.1972101 10.7626
-3.09743 0.55208701 11.9364
-4.0143299 2.3356199 10.7598
-2.9156001 3.22455 12.2975
-2.9421201 0.76835901 12.0439
-3.7330899 1.0102201 11.617
-2.99897 0.58240801 12.0736
-3.3680899 1.83181 11.4745
-3.13449 0.44471499 12.0147
-3.0943699 0.55264401 11.9355
-3.39591 1.08979 11.5986
-3.2002001 0.53702998 11.9476
-3.08321 0.870354 11.8583
-3.3303399 0.52892798 12.0369
-3.1052001 0.55542701 11.9439
-2.9549 0.43793899 12.1579
-3.0771899 0.64740998 11.8823
-3.3257501 0.83570302 11.7631
-3.3541601 0.52895403 12.0542
-3.0004599 0.43880099 12.05
-4.0668201 2.31862 10.6945
-2.8915 0.42936099 12.2917
-3.365 1.25626 11.4424
-3.3490801 1.0245 11.651
-3.3659201 0.56325501 12.0353
-4.1405301 2.30826 10.6564
-3.4040101 1.26053 11.4682
-3.33759 0.99069798 11.6328
-3.3831201 1.28078 11.4303
-3.47578 1.21051 11.5314
-2.8490901 0.485237 12.3652
-3.14189 1.01871 11.6949
-3.1280999 1.03422 11.7174
-3.2214 1.31908 11.6104
-4.03509 1.74784 11.05
-2.94787 0.79664701 12.1679
-3.5159099 2.1171899 10.926
-2.8566999 0.51409298 12.3677
-2.9047799 0.51194298 12.257
-3.37731 1.2930501 11.3792
-3.7669201 1.18987 11.5406
-3.48102 1.12983 11.5384
-3.56126 2.5464201 11.0195
-3.8243799 2.3791201 10.7
-3.4663701 2.0048599 11.0566
-3.4808199 2.03021 11.0471
-2.85935 0.44942999 12.3487
-3.35128 1.02589 11.5963
-2.8647699 0.542252 12.3482
-3.1377201 0.550376 11.9564
-3.17625 0.54428399 11.9481
-5.6742702 2.6505001 10.3973
-3.17731 0.52836901 11.9668
-2.9640901 0.511338 12.1382
-3.15043 0.58694398 11.9086
-2.8696001 0.496544 12.3662
-3.2346399 0.41515899 12.0376
-3.3703001 1.0178699 11.6623
-3.12183 0.86553502 11.7358
-3.49208 0.93941897 11.7726
-4.0872898 2.2237999 10.7828
-3.3638899 0.99092197 11.6576
-3.2230999 0.51000601 11.9457
-2.97982 0.54736102 12.1017
-3.9868 1.8370301 11.0218
-3.74612 0.39461401 12.0099
-3.5205901 1.15371 11.6152
-3.1970799 1.29259 11.753
-3.2158301 1.31709 11.755
-3.11338 0.846322 11.7468
-3.12749 0.45526999 11.9761
-3.04071 1.06416 11.9861
-3.4905701 0.818551 11.8294
-3.0320101 0.495673 12.0006
-3.78076 1.16475 11.5303
-3.0641501 0.58816397 11.932
-3.47824 1.11005 11.5553
-3.9647 2.41083 10.7456
-2.98859 0.712358 12.07
-3.15697 0.53910798 11.961
-4.1245198 2.20296 10.6896
-3.1888399 0.56361198 11.9026
-3.77389 1.83935 11.2377
-3.1236899 0.580033 11.8934
-3.03303 0.57249898 11.9724
-2.8378601 0.447263 12.354
-2.9759901 0.58520001 12.1005
-3.3938501 1.06801 11.6024
-3.1763999 0.564206 11.9341
-2.30744 0.83498901 12.6994
-3.2005401 0.51677197 11.9353
-3.2005401 0.51677197 11.9353
-3.2005401 0.51677197 11.9353
-3.4999101 2.0840199 11.0118
-3.5010099 2.11515 11.0105
-3.4670501 1.9555 11.0155
-5.6619301 2.6756401 10.3433
-5.6427999 2.6808 10.3674
-3.1270001 0.440173 11.9987
-3.1270001 0.440173 11.9987
-3.0497899 0.63147002 11.9561
-2.36883 0.70605999 12.7538
-2.35988 0.68194801 12.7413
-2.30862 0.78964502 12.7224
-3.4953301 1.41184 11.3501
-2.3071401 0.81225097 12.7151
-3.53843 2.5501001 10.5745
-2.9704599 0.56920701 12.1137
-3.1289999 0.473423 11.9738
-3.4820499 0.80334002 11.851
-3.66397 1.51682 11.4355
-2.35499 0.76262099 12.7471
-3.2434001 0.563609 11.9317
-2.3527501 0.73019898 12.7393
-3.0866699 0.47525901 11.9701
-3.1705799 0.47398901 11.9786
-3.45259 1.12912 11.5215
-3.5694699 1.2194999 11.5694
-2.3259399 0.73012501 12.7483
-3.4853101 0.780725 11.8424
-5.6013298 2.6728799 10.4037
-3.1659 0.56987298 11.906
-3.67556 1.31645 11.5101
-3.2760799 0.52064902 11.9948
-3.4765 0.765329 11.8573
-3.15166 0.466966 11.9932
-3.0272 0.55525798 11.9817
-3.1776099 0.46410999 12.0174
-3.8346901 1.2963001 11.4161
-3.18677 0.45105901 12.0321
-3.84866 1.2902499 11.3985
-3.18557 0.54223001 11.9077
-2.8833201 0.523305 12.1678
-3.11658 0.57427299 11.9089
-3.3280399 1.0238301 11.6471
-2.2574601 0.819215 12.7576
-3.7372701 2.4837799 10.602
-3.7269101 2.5021801 10.6255
-3.82708 2.0760601 10.9609
-5.6854501 2.6210499 10.4002
-3.36395 0.93074 11.6858
-2.94118 0.63210499 12.058
-3.5699699 1.97912 10.9448
-3.48241 0.74364603 11.8526
-2.89798 0.509556 12.1442
-3.47702 0.73302299 11.8647
-3.3564501 0.94973803 11.6745
-3.4528699 0.75755298 11.8943
-3.10974 0.468422 11.9865
-2.33009 0.82334 12.709
-3.15049 0.48164701 11.9566
-3.0009999 0.94190598 12.1087
-3.19874 0.45495701 12.0284
-3.4626801 0.73356903 11.8873
-3.3591299 0.60528898 11.983
-3.1810701 0.45317999 12.0018
-3.6454 0.69432098 11.7575
-3.2270999 0.52906299 11.9326
-2.9600799 0.41616201 12.1712
-2.2713201 0.83707201 12.7527
-3.63697 1.26784 11.5522
-3.6363699 1.26756 11.551
-3.4515901 0.75067401 11.8931
-3.0862601 0.458992 11.9829
-3.2523601 0.51552701 11.9073
-3.4769599 0.71890497 11.8795
-2.32847 0.682374 12.7653
-3.01788 0.520163 12.0615
-3.6900201 1.29039 11.5224
-3.46751 0.75031602 11.8744
-3.4777901 0.711357 11.8438
-3.14693 0.44379601 11.9948
-2.3322301 0.77696002 12.7267
-3.98965 1.64457 11.1522
-3.4222 0.72864699 11.901
-2.33182 0.800192 12.7146
-3.5903101 2.23733 10.7875
-3.0040901 0.69501603 12.0327
-2.34413 0.705769 12.756
-2.27686 0.75377703 12.7695
-3.7065899 2.4961801 10.5895
-5.6133599 2.62936 10.4627
-5.6366801 2.6224101 10.442
-2.3333099 0.75328499 12.7401
-3.0525401 0.98621202 11.9556
-3.15677 0.55672997 11.9566
-3.6853001 1.2814 11.5613
-3.56971 2.2494299 10.8363
-3.62429 2.5488901 10.9271
-2.3067901 0.75315398 12.7476
-3.47821 0.71216702 11.8828
-3.4463999 0.73392999 11.9057
-3.6364999 0.84179097 11.725
-3.4922099 2.08219 11.0569
-3.6241601 1.39846 11.5263
-2.9371099 0.60158801 12.0837
-3.63359 1.4055099 11.5218
-2.2734301 0.7931 12.7487
-3.67766 1.2617199 11.5256
-3.4623301 0.7155 11.8995
-3.5399001 2.1983399 10.8508
-3.1698999 0.437866 12.0064
-3.4384601 0.69867897 11.9241
-3.3887899 0.45467001 12.1496
-2.2512801 0.79234701 12.7432
-3.0093 0.63614601 12.0195
-3.70784 1.66229 11.2718
-3.5074501 2.15117 11.0137
-3.5029299 2.1359501 11.0417
-3.4037299 0.611687 11.9922
-3.0188899 0.54739302 12.0374
-3.42856 0.71582299 11.9324
-3.37551 1.81963 11.3326
-3.7206099 2.5188 10.6564
-3.44484 0.71547198 11.9142
-3.44752 0.68124402 11.9132
-3.02268 0.94579202 11.9823
-2.9363599 0.69455397 12.2001
-3.55898 2.2421601 10.854
-3.0115299 0.52970499 12.0464
-3.6001899 2.5704 10.9266
-3.3840301 1.14003 11.4987
-3.42167 0.59933501 11.9909
-3.40399 0.592924 12.0108
-3.97473 1.73765 11.1614
-3.5434301 1.22393 11.5578
-3.4256999 0.66371 11.9407
-3.62534 1.36938 11.559
-3.0164001 0.67895401 12.0014
-3.2951901 0.46674201 12.0524
-3.01405 0.70882499 12.0089
-3.4305699 0.648682 11.9349
-3.33606 0.477584 12.1193
-3.33606 0.477584 12.1193
-3.33606 0.477584 12.1193
-3.45192 1.91382 11.0295
-3.6501701 1.37008 11.5616
-3.01559 0.55281699 12.018
-3.4314599 0.68157297 11.9318
-3.4296601 1.13351 11.5089
-3.5997701 2.34411 10.8007
-5.6557002 2.6595399 10.4224
-3.4414401 0.63910401 11.9068
-3.44171 0.66390401 11.9225
-3.4612601 1.3462 11.366
-2.9765899 0.45523801 12.0938
-3.28475 0.432019 12.1285
-3.6398699 1.38718 11.5442
-4.06569 2.28142 10.7263
-3.4972601 0.355427 12.0271
-3.1856 1.39885 11.7529
-3.00612 0.55622798 12.0699
-3.43168 0.63754398 11.9399
-3.4240201 0.66359198 11.9408
-2.9380701 0.66346502 12.1919
-3.8003199 1.19583 11.4677
-3.33621 0.544765 11.9796
-3.32568 0.51497298 12.072
-3.2718101 0.59371299 11.9127
-3.33623 0.45914599 12.1328
-3.33623 0.45914599 12.1328
-3.33623 0.45914599 12.1328
-3.0101199 0.733899 11.9792
-3.0101199 0.733899 11.9792
-3.0101199 0.733899 11.9792
-3.27265 1.36269 11.4329
-3.4021299 0.571944 12.0236
-3.0057001 0.664065 12.0224
-2.95157 0.460722 12.1461
-3.0813799 0.91441798 11.8173
-3.28495 0.93096298 11.6288
-3.37555 1.80799 11.3275
-3.37555 1.80799 11.3275
-3.37555 1.80799 11.3275
-2.9609301 0.47575799 12.1351
-3.30933 0.435386 12.1331
-3.27721 0.41587001 12.1422
-3.29497 0.61557901 11.9099
-2.9770501 0.53639001 12.1292
-2.97416 0.541888 12.1137
-3.6916399 2.5357499 10.6488
-3.2932899 0.63001901 11.8871
-3.31828 0.40568799 12.1635
-3.95524 2.44138 10.6717
-3.2627499 0.57730597 11.919
-3.2063301 0.394517 12.0217
-3.29074 0.39948201 12.1502
-3.3749399 1.76671 11.2235
-3.3086901 0.38761601 12.1733
-5.69665 2.63324 10.3714
-3.36766 1.83602 11.2779
-3.3672299 0.451767 12.1166
-3.27035 0.913288 11.6337
-3.3224399 0.981507 11.6314
-2.96457 0.445059 12.1213
-4.1171398 2.25842 10.7773
-3.3497701 0.569987 12.0109
-3.7130899 2.47805 10.5622
-3.4923899 1.10515 11.6338
-3.5146 0.314477 12.0967
-3.33709 0.44396499 12.139
-3.5583501 2.2642 10.8961
-3.2433701 0.797916 11.7447
-2.94487 0.82093 12.238
-2.97434 0.72648901 12.0956
-3.2515199 0.82477099 11.7343
-3.2680299 0.353111 12.1665
-3.66628 1.60851 11.2978
-3.22545 0.80944997 11.7369
-3.21649 0.79406297 11.7501
-3.2202499 0.832452 11.7347
-3.27899 0.37986499 12.1534
-3.23154 0.81461799 11.7366
-3.2634201 0.82335502 11.7383
-3.25442 0.81504601 11.7397
-3.46106 1.97171 11.0594
-2.96294 0.68932199 12.1207
-3.73226 1.73516 11.2287
-3.27316 0.80613703 11.7476
-3.5327301 0.458857 11.9381
-3.5320301 0.484124 11.9628
-3.4425199 1.26489 11.4471
-2.9946699 0.648835 12.0425
-3.70123 1.73851 11.2109
-2.9663401 0.83683503 12.1932
-2.9663401 0.83683503 12.1932
-2.9663401 0.83683503 12.1932
-3.6616099 2.5134301 10.7308
-3.5339401 1.24101 11.5435
-3.2304599 0.77351803 11.7284
-5.5711198 2.7244501 10.3488
-5.5899301 2.7162001 10.3218
-3.64733 2.5042901 10.7597
-3.0239799 0.45595399 12.0226
-3.5876701 2.3007901 10.7919
-3.19451 0.791583 11.7452
-3.7267699 1.64166 11.3252
-3.1219299 0.90170002 11.7392
-3.22138 0.79472899 11.7366
-3.32987 0.51535398 12.0878
-3.59232 2.5861499 10.8878
-3.58301 2.5955 10.8564
-2.94679 0.748752 12.1508
-3.25106 0.80598998 11.7446
-3.5745399 2.3594999 11.0303
-2.96451 0.71331698 12.1219
-2.9789701 0.94921398 12.1337
-3.7505901 1.76316 11.2199
-3.2608399 0.78885901 11.754
-3.0599699 0.61407399 11.9884
-3.7511499 1.74813 11.2373
-2.95048 0.70504802 12.1556
-3.03984 0.47485301 11.9512
-3.2215099 1.4306 11.6293
-3.13728 0.89705801 11.7182
-2.88061 0.61442399 12.2324
-3.6733201 2.5079801 10.7724
-3.14889 0.67934698 11.8462
-3.4377899 1.93914 11.3515
-3.75176 1.7331899 11.2552
-3.1400499 0.65789002 11.8678
-3.1808 0.67851698 11.8505
-3.42799 2.02584 11.1176
-3.0304301 0.433667 12.015
-2.94098 0.73529702 12.1783
-3.64816 2.4839699 10.5888
-3.1698401 0.66116297 11.854
-3.05615 0.41778299 12.0083
-3.19173 0.661973 11.8574
-2.9457099 0.70649397 12.1734
-3.5548501 1.2649601 11.5671
-3.2690001 0.72184902 11.7836
-3.0851901 0.91205698 11.8896
-3.2981501 0.73672903 11.8334
-2.9268601 0.65654701 12.2407
-3.01653 0.43758401 12.0299
-3.6582201 0.42811701 12.0158
-3.1716001 0.68267602 11.854
-3.22053 0.44655001 12.0419
-3.6510301 0.90260601 11.7306
-3.04706 0.57545102 11.9536
-3.1607201 0.66362 11.8572
-3.00559 0.455742 12.0326
-2.9839201 0.608132 12.0743
-3.13973 0.66474402 11.8627
-3.1710999 0.66247302 11.8584
-2.9463799 0.569323 12.1017
-3.6538301 2.5285499 10.7659
-3.6458099 2.55762 10.7646
-3.6149499 0.74444699 11.7894
-3.1808901 0.67872298 11.8512
-2.93859 0.64704001 12.0557
-3.1694 0.59270602 11.8812
-3.70768 2.5901301 10.8239
-3.1201601 0.65875101 11.8768
-3.16009 0.64671999 11.8705
-3.59303 2.4605801 10.5974
-3.1045001 0.69137698 11.8723
-3.4916601 0.29495299 12.1261
-4.0289998 2.41942 10.694
-3.0875001 0.68653601 11.881
-2.94593 0.487546 12.1613
-3.66903 0.425304 12.0041
-3.1230099 0.82810801 11.8187
-3.3173499 0.49529999 12.0898
-3.12293 0.69132501 11.8447
-3.6529601 2.08552 10.8038
-3.0869801 0.66836601 11.8891
-3.07092 0.68854302 11.8935
-3.0839601 0.44220299 12.0117
-3.0090499 0.59446102 12.036
-3.02055 0.61819202 11.9896
-3.05106 0.74063301 11.8952
-3.64345 2.5557599 10.7634
-3.70099 1.63244 11.3633
-3.05723 0.70953202 11.9007
-3.12152 0.67532301 11.8554
-3.54092 2.1507101 10.8777
-3.6793499 2.5322399 10.8062
-3.5366299 2.21984 10.8802
-3.0419199 0.69790298 11.9152
-3.0274799 0.71317601 11.9424
-2.91926 0.72317702 12.147
-3.01261 0.56875801 11.9721
-3.6917 2.59448 10.8459
-3.11426 0.709925 11.8657
