# .PCD v0.7 - Point Cloud Data file format
VERSION 0.7
FIELDS x y z
SIZE 4 4 4
TYPE F F F
COUNT 1 1 1
WIDTH 940
HEIGHT 1
VIEWPOINT 0 0 0 0 0.5 0 0
POINTS 940
DATA ascii
-3.5699201 2.19379 10.803
-3.3364999 1.5632 11.2906
-3.3436201 1.5719399 11.2801
-3.4337101 1.12572 11.5546
-3.3338399 1.44897 11.3239
-3.3336501 1.4488699 11.3237
-3.34021 1.4663 11.3134
-3.3404901 1.46632 11.3133
-3.7509699 2.1451299 10.7907
-3.75088 2.14535 10.7905
-3.3485799 1.3963 11.3363
-3.34866 1.3963701 11.3366
-3.3164699 1.43662 11.3476
-3.3168099 1.43668 11.3475
-3.34834 1.39633 11.3368
-3.3253 1.41733 11.3472
-3.3252399 1.41738 11.3476
-3.3380599 1.41409 11.3354
-3.3378501 1.41407 11.3358
-3.3375599 1.41386 11.3355
-3.3421099 1.42967 11.3236
-3.3422799 1.42963 11.3231
-3.3120301 1.40124 11.3634
-3.3122699 1.40069 11.3633
-3.3283801 1.43283 11.3356
-3.3278899 1.43246 11.3353
-3.3345599 1.44909 11.3236
-3.3127201 1.39794 11.3632
-3.3132601 1.39737 11.3629
-3.30387 1.38245 11.3791
-3.3045199 1.3819799 11.3788
-3.2988501 1.40915 11.3801
-3.29847 1.40993 11.3804
-3.3238001 1.41729 11.348
-3.3096499 1.29335 11.3931
-3.3089299 1.29475 11.3933
-3.3408301 1.42893 11.323
-3.6187699 2.1612 10.7641
-3.61883 2.1617899 10.7657
-3.16502 1.04102 11.6461
-3.16608 1.04252 11.6461
-3.3224699 1.41635 11.347
-3.3071101 1.32286 11.3938
-3.30599 1.32204 11.3955
-3.2992499 1.40674 11.3802
-3.3566999 1.51688 11.2794
-3.3545301 1.51545 11.2788
-3.3313401 1.32794 11.3629
-3.33026 1.33043 11.3631
-3.3478799 1.44617 11.3118
-3.3454001 1.44495 11.3114
-3.34236 1.34299 11.347
-3.3398299 1.34208 11.3481
-3.3148 1.33889 11.3793
-3.31499 1.33603 11.3787
-3.3287301 1.38952 11.3468
-3.3275001 1.39222 11.3468
-3.3241799 1.3501101 11.3621
-3.32302 1.3528301 11.3624
-3.32285 1.41324 11.3469
-3.3399601 1.34516 11.3468
-3.3196101 1.37418 11.3625
-3.3190701 1.37758 11.3633
-3.3064899 1.31872 11.3943
-3.43804 1.3494 11.3533
-3.4398501 1.35273 11.3514
-3.3205299 1.31581 11.3773
-3.3192799 1.3118401 11.3784
-3.2151599 1.18496 11.547
-3.2152901 1.18899 11.5488
-3.7142899 1.90553 10.9857
-3.7148499 1.9070801 10.9813
-3.4236901 1.36488 11.351
-3.4225299 1.36341 11.3554
-3.2488501 1.26782 11.4965
-3.2472501 1.26635 11.4917
-3.2803099 1.3776 11.4234
-3.2816701 1.3806601 11.4193
-3.3591599 1.62204 11.2492
-3.36007 1.62192 11.2436
-3.4532599 1.75201 11.0958
-3.4498999 1.75629 11.0975
-3.32377 1.4716001 11.3311
-3.32757 1.4698 11.3257
-3.38626 1.6615601 11.2017
-3.3844199 1.66816 11.2
-3.33688 1.59219 11.2818
-3.34026 1.59631 11.277
-3.58196 2.08059 10.8507
-3.5744901 2.0807099 10.85
-3.72103 1.89097 11.0504
-3.7233601 1.88851 11.0435
-3.71105 1.90819 10.9922
-3.1412399 1.07577 11.6913
-3.7068801 1.9066401 10.9825
-3.5220101 2.2047601 10.9113
-3.5222001 2.19871 10.9053
-3.6868801 1.86323 11.0009
-3.68945 1.86799 11.0077
-3.6495199 1.93066 10.9192
-3.6471901 1.92344 10.9142
-3.39484 1.70513 11.1737
-3.3998899 1.70937 11.1672
-3.2210901 1.11099 11.5401
-3.23001 1.11339 11.5444
-3.3350799 1.39925 11.3484
-3.7200401 1.87869 11.0415
-3.4424801 1.36317 11.3504
-3.68574 1.82505 11.0299
-3.6809399 1.81625 11.0344
-3.6979499 1.87736 10.9817
-3.69243 1.87761 10.9929
-3.2479501 1.09552 11.5464
-3.1791301 1.03119 11.6288
-3.1709499 1.0181 11.6445
-3.43138 1.06362 11.5833
-3.39765 1.67969 11.1775
-3.4009299 1.68033 11.1648
-3.29831 1.28205 11.4097
-3.2838299 1.29441 11.4277
-3.27057 1.3052 11.444
-3.2572899 1.28847 11.4605
-3.2251699 1.1775399 11.5305
-3.2136199 1.12453 11.5601
-3.2221601 1.20226 11.5308
-3.7009201 1.87635 10.9686
-3.41768 1.0797 11.58
-3.4156401 1.72111 11.1374
-3.4065499 1.72466 11.1475
-3.1935401 0.992019 11.6073
-3.21222 1.06941 11.5593
-3.2829001 1.26779 11.4274
-3.1903701 1.01921 11.609
-3.6947401 1.85892 11.0177
-3.17838 0.97663498 11.6282
-3.1805501 1.0051399 11.6286
-3.17768 1.0562201 11.6291
-3.6898201 1.83885 11.0272
-3.7021501 1.91591 10.9722
-3.2431099 1.1198601 11.5454
-3.3754699 1.44156 11.2894
-3.27772 1.4049 11.4225
-3.26982 1.4144 11.4304
-3.1847501 1.12282 11.6062
-3.38696 1.4900301 11.2544
-3.16274 1.06688 11.6459
-3.3603899 1.4430701 11.3001
-3.1744001 1.0829901 11.628
-3.1840899 1.14888 11.6068
-3.1568999 1.02799 11.6619
-3.1675501 1.09677 11.6469
-3.17398 1.1086 11.6285
-3.1538301 1.0540299 11.6658
-3.21366 1.09813 11.5595
-3.34589 1.38174 11.3497
-3.35658 1.37116 11.3483
-3.3789001 1.49482 11.2663
-3.2379999 1.2896399 11.4958
-3.22787 1.2733001 11.5137
-3.2113299 1.21408 11.5494
-3.2068701 1.19656 11.5666
-3.38592 1.61809 11.2158
-3.3754301 1.61124 11.2245
-3.3002 1.20665 11.4609
-3.3152101 1.20714 11.4581
-3.40538 1.5302 11.2189
-3.3682401 1.46097 11.2893
-3.3691399 1.42427 11.3
-3.3812399 1.4583 11.2768
-3.3566999 1.42751 11.3123
-3.3529401 1.4628201 11.3008
-3.3655701 1.4090101 11.3127
-3.3827801 1.40826 11.3022
-3.36134 1.3932199 11.3246
-3.34552 1.48291 11.3022
-3.3378601 1.50281 11.3033
-3.5750301 2.00278 10.8967
-3.57481 2.0180099 10.8937
-3.3332801 1.48657 11.3146
-3.54146 1.99098 10.9368
-3.5513301 1.99623 10.9258
-3.5218799 1.85379 11.0124
-3.54899 1.91366 10.9649
-3.2704401 1.22444 11.4708
-3.2875299 1.22375 11.459
-3.3297701 1.19375 11.4645
-3.29825 1.18859 11.4758
-3.31373 1.17444 11.4799
-3.3139501 1.19042 11.4666
-3.32951 1.1772701 11.4757
-3.24822 1.23062 11.5041
-3.24892 1.21613 11.5117
-3.3153701 1.1599801 11.4962
-3.2932401 1.2374099 11.4661
-3.4384201 1.36736 11.335
-3.50179 1.81477 11.0304
-3.55266 1.88862 10.9755
-3.5638399 1.9043 10.9542
-3.6127801 2.13271 10.7991
-3.2479999 1.1900899 11.5192
-3.1911399 1.07034 11.6075
-3.2831199 1.20895 11.4803
-3.58478 2.1525199 10.8077
-3.57917 2.1682899 10.8084
-3.2659299 1.22549 11.4913
-3.15924 1.08269 11.6675
-3.1710601 0.99163401 11.6507
-3.3 1.46576 11.3646
-3.3000801 1.44942 11.3684
-3.5771899 1.55628 11.2239
-3.1909699 1.09991 11.6063
-3.41099 1.49067 11.2447
-3.4101701 1.51984 11.2324
-3.2625699 1.1574 11.5238
-3.3982601 1.50855 11.2439
-3.1952801 1.18358 11.609
-3.39274 1.57581 11.2116
-3.3998599 1.55274 11.2116
-3.40237 1.47363 11.2562
-3.3840401 1.56065 11.2279
-3.3898399 1.53671 11.2278
-3.3345101 1.36511 11.346
-3.3803899 1.52101 11.2444
-3.37482 1.54594 11.2446
-3.37746 1.58403 11.2281
-3.37479 1.47867 11.2783
-3.35306 1.41221 11.3247
-3.3676801 1.51258 11.2661
-3.35604 1.4783601 11.2889
-3.38662 1.59979 11.2127
-3.36535 1.5304199 11.2614
-3.30935 1.35922 11.3788
-3.3489299 1.49844 11.2903
-3.30178 1.34501 11.3945
-3.3594501 1.55471 11.2617
-3.3649499 1.59628 11.244
-3.3589201 1.58079 11.2597
-3.3087001 1.42109 11.3637
-3.2839601 1.34656 11.4193
-3.3153999 1.45669 11.3472
-3.34724 1.60611 11.2636
-3.2943101 1.36721 11.3943
-3.3059599 1.1397001 11.4787
-3.4235699 1.33076 11.3828
-3.3187599 1.49603 11.3315
-3.3250899 1.13877 11.4808
-3.34536 1.63273 11.2642
-3.30884 1.47998 11.3474
-3.3045399 1.50567 11.3483
-3.2904899 1.15153 11.4704
-3.2900801 1.4285901 11.379
-3.33128 1.59122 11.2997
-3.3323901 1.61726 11.2815
-3.3139701 1.52051 11.3321
-3.61373 2.0585301 10.836
-3.6231799 2.05897 10.8215
-3.46755 1.79249 11.0759
-3.3487301 1.1431201 11.4858
-3.4244101 1.52793 11.2267
-3.3089399 1.5388499 11.3536
-3.2988999 1.49234 11.3664
-3.3338399 1.64622 11.283
-3.31516 1.54826 11.333
-3.54356 1.98088 10.9661
-3.57442 2.0294001 10.8788
-3.5646501 2.03578 10.8917
-3.5940101 1.88849 10.9766
-3.35619 1.69269 11.2639
-3.3016701 1.5244499 11.3712
-3.48403 1.9468 10.9955
-3.2767899 1.45956 11.413
-3.5005801 1.93888 10.9757
-3.0729201 0.847651 11.8951
-3.07409 0.84889901 11.8777
-3.4196899 1.67275 11.1485
-3.42922 1.62597 11.1628
-3.2548201 1.28155 11.4834
-3.41026 1.6966701 11.148
-3.58143 1.9035 10.9531
-3.41116 1.65688 11.1656
-3.4201 1.60583 11.1791
-3.78372 2.14221 10.8357
-3.7706299 2.1303999 10.8341
-3.21139 1.14406 11.5797
-3.28743 1.41987 11.4062
-3.2279999 1.1659 11.5477
-3.3698399 1.6780699 11.2186
-3.7705901 2.11391 10.8514
-3.7836001 2.1257701 10.8483
-3.23418 1.1435699 11.5456
-3.2625201 1.32323 11.4585
-3.2530899 1.13688 11.5393
-3.2607701 1.3516001 11.4583
-3.5764599 2.0634699 10.8711
-3.58325 2.0469899 10.869
-3.20806 1.13243 11.593
-3.29006 1.32329 11.4183
-3.59284 2.05355 10.8551
-3.4507699 1.79544 11.0821
-3.5768199 2.13395 10.8189
-3.2853799 1.2578 11.4693
-3.2662101 1.26311 11.4823
-3.27508 1.27826 11.4637
-3.2569399 1.24634 11.4897
-3.5940399 2.1326499 10.8106
-3.2271399 1.22127 11.5228
-3.6242399 2.08552 10.8015
-3.24049 1.25147 11.5079
-3.2756 1.24142 11.4792
-3.2030301 1.08411 11.5818
-3.62217 2.04092 10.8322
-3.4504099 1.13975 11.4986
-3.5748899 1.99064 10.9105
-3.59079 1.99324 10.9019
-3.6126101 2.2156 10.7686
-3.5962601 2.0311899 10.8725
-3.2591701 1.4012001 11.4496
-3.2417099 1.1582 11.528
-3.1677799 0.87895799 11.7085
-3.2791901 1.15576 11.5087
-3.2330899 1.1389199 11.5462
-3.2571599 1.1408 11.5379
-3.2153699 1.2458301 11.5613
-3.21997 1.2582999 11.536
-3.2739301 1.13919 11.5232
-3.17064 0.88083303 11.7071
-3.1863501 0.87045902 11.7286
-3.2677701 1.11871 11.5505
-3.2103701 0.84989297 11.7038
-3.2472799 1.07576 11.5754
-3.22297 1.02536 11.6096
-3.36533 1.49742 11.2788
-3.46596 1.86659 11.0291
-3.4642701 1.8292201 11.0443
-3.4749601 1.84742 11.0278
-3.4572001 1.8539799 11.0449
-3.5964 2.1845 10.7864
-3.4604199 1.77135 11.0799
-3.3439 1.54603 11.2906
-3.27439 1.07643 11.5733
-3.38871 1.4248101 11.2945
-3.21542 1.27588 11.5612
-3.4247999 1.7004499 11.1364
-3.3662801 1.3203501 11.3699
-3.4570301 1.8125499 11.0635
-3.3466401 0.84167898 11.7328
-3.44098 1.81995 11.0828
-3.44348 1.86364 11.0655
-3.4421 1.77511 11.0971
-3.44101 1.6962399 11.1229
-3.4232199 1.73864 11.1251
-3.44906 1.83635 11.0636
-3.4163101 1.76232 11.1291
-3.43396 1.79873 11.0971
-3.43191 1.71691 11.1238
-3.44204 1.73692 11.1107
-3.3464899 0.84154397 11.7326
-3.3464899 0.84154397 11.7326
-3.42679 1.87237 11.0844
-3.40115 1.6546 11.1817
-3.4228899 1.82789 11.1007
-3.4193399 1.4596699 11.2653
-3.43208 1.7586499 11.1127
-3.41681 1.80656 11.1132
-3.3938401 1.63578 11.1985
-3.43257 1.84519 11.0826
-3.40868 1.79132 11.13
-3.41184 1.63074 11.1806
-3.41538 1.8570499 11.104
-3.40254 1.61075 11.1973
-3.2527201 1.05548 11.5839
-3.1724999 0.91981298 11.6606
-3.4033 1.74605 11.1472
-3.39133 1.7586401 11.168
-3.61274 2.14803 10.7833
-3.03789 0.479081 12.0235
-3.4258201 1.89463 11.1135
-3.4409001 1.91673 11.0656
-3.3987 1.77193 11.1473
-3.41169 1.82502 11.1384
-3.3806601 1.69303 11.1955
-3.4246399 1.89724 11.1166
-3.42435 1.90136 11.0858
-3.40856 1.84202 11.1213
-3.39013 1.73125 11.1738
-3.2454901 1.35592 11.4686
-3.4416299 1.94245 11.0962
-3.2899001 1.39545 11.4006
-3.43117 1.93117 11.1204
-3.4191599 1.88197 11.1362
-3.3797901 1.72214 11.1985
-3.30092 0.78062099 11.7842
-3.62972 2.12163 10.801
-3.5320101 1.89036 10.9871
-3.5139 1.90338 10.9833
-3.5008199 1.9076 10.9995
-3.4935901 1.84762 11.0176
-3.4814501 1.86474 11.0171
-3.5249901 1.8728499 10.9969
-3.50893 1.88722 10.9943
-3.4827399 1.90826 11.0109
-3.5485301 1.876 10.9935
-3.14592 0.82712197 11.7385
-3.4860699 1.82964 11.0277
-3.4746201 1.80585 11.0457
-3.1582301 0.84664702 11.7386
-3.13538 0.80820698 11.7414
-3.4633901 1.89025 11.0316
-3.1684799 0.827452 11.7333
-3.14748 0.82744098 11.7415
-3.1571 0.807827 11.7351
-3.7897 2.11064 10.8643
-3.7837501 2.1590099 10.819
-3.7702 2.14621 10.8138
-3.7897999 2.0936501 10.8828
-3.62291 2.09095 10.8202
-3.3838 1.3452899 11.3663
-3.4201601 1.17941 11.4968
-3.27948 1.1827199 11.4831
-3.4395499 1.1809601 11.5046
-3.26684 1.17361 11.511
-3.39977 1.45936 11.2702
-3.6077299 2.0262499 10.8572
-3.15871 0.99611199 11.6655
-3.4999399 1.87193 11.0199
-3.3454101 1.65894 11.2607
-3.3350501 1.6754 11.283
-3.3936601 1.4419399 11.2806
-3.5869701 2.1166201 10.8216
-3.1780901 1.13743 11.6225
-3.65538 2.0357599 10.8442
-3.65978 2.0341401 10.8244
-3.42345 1.50668 11.2416
-3.1393099 0.35157499 12.0543
-3.6124401 1.9276201 10.9294
-3.62678 1.93454 10.9425
-3.0934801 0.49784401 11.9726
-3.09251 0.48133001 11.9842
-3.67243 1.90121 10.9654
-3.6566899 1.89188 10.9556
-3.1343999 0.461209 11.9992
-3.1117001 0.48713899 11.9763
-3.0917201 0.465103 12.0003
-3.14399 0.417972 12.0243
-3.12081 0.43499401 11.9977
-3.1408801 0.42360601 12.0039
-3.3833399 1.37377 11.3185
-3.0568299 0.61007798 11.9204
-3.11009 0.45309499 12.0042
-3.0948601 0.453141 12.0217
-3.40203 1.36789 11.3354
-3.40292 1.38635 11.3254
-3.1000199 0.51777202 11.9582
-3.2217801 0.60911602 11.8881
-3.55968 2.1515501 10.8289
-3.5392799 2.16608 10.849
-3.5395601 2.1015301 10.8715
-3.5713501 2.0915301 10.8749
-3.1096201 0.438005 12.0207
-3.4281499 1.4784499 11.2613
-3.5331199 2.1113501 10.8949
-3.10338 0.38778901 12.0219
-3.4228301 1.3468601 11.3687
-3.5266299 2.1312001 10.8988
-3.5576999 2.0647399 10.8919
-3.2058499 1.1645401 11.5713
-3.0878999 0.51051903 11.9795
-3.08125 0.418253 12.037
-3.33691 1.1578799 11.4783
-3.49931 1.9844 10.9573
-3.4892499 1.99672 10.9789
-3.5873101 1.95119 10.9566
-3.31288 1.15394 11.4758
-3.0852101 0.492989 11.9872
-3.4247 1.38314 11.3399
-3.63238 1.90739 10.9428
-3.2040801 0.95606399 11.6271
-3.5372601 2.27773 10.8739
-3.5536101 2.29158 10.877
-3.4902301 1.88746 11.0053
-3.20473 0.98198301 11.6081
-3.18256 1.16682 11.6321
-3.1919899 0.94097799 11.6333
-3.31967 1.56522 11.3205
-3.2023799 0.92836303 11.6484
-3.5992899 2.0820301 10.8362
-3.5849199 2.0985799 10.8352
-3.70207 1.8468699 11.0488
-3.3843999 1.16091 11.4998
-3.4051001 1.15451 11.5103
-3.60553 2.1041701 10.8241
-3.2948501 0.75642997 11.7974
-3.64397 2.0613401 10.8215
-3.3833301 1.12167 11.5138
-3.27457 1.3381701 11.4376
-3.40485 1.13516 11.5169
-3.5588901 2.1817901 10.8284
-3.5514801 2.0125401 10.9106
-3.55018 2.1159301 10.8475
-3.55515 2.21099 10.8261
-3.6220801 2.2283299 10.7367
-3.63026 2.20224 10.7381
-3.7314501 2.0778601 10.8391
-3.7323 2.0965199 10.8268
-3.57476 1.92217 10.9363
-3.5431199 2.0413699 10.9113
-3.5152099 2.0465901 10.9561
-3.5323901 2.0669301 10.9064
-3.63133 2.14219 10.7589
-3.5274601 2.0263 10.9321
-3.57182 1.95499 10.9399
-3.63449 2.1749699 10.7428
-3.7130401 1.96483 10.9307
-3.5252099 1.9241199 10.9753
-3.5334599 1.94287 10.964
-3.5634501 1.93594 10.9521
-3.6398201 2.2193401 10.7177
-3.28598 1.08103 11.5487
-3.71591 2.0745599 10.8686
-3.60413 1.86127 10.9778
-3.5934401 1.86362 10.9979
-3.30551 1.10197 11.5402
-3.7111599 1.94122 10.9265
-3.42591 1.09584 11.5704
-3.32638 1.53689 11.3028
-3.1219201 0.362984 12.0512
-3.30761 1.11871 11.5147
-3.75035 2.1119101 10.827
-3.7502 2.09497 10.8431
-3.53455 1.8193901 11.0168
-3.0591099 0.68370599 11.9375
-3.05914 0.68931299 11.9111
-3.4268501 1.78414 11.1144
-3.1840301 0.90457898 11.7171
-3.1558001 0.930305 11.6743
-3.14674 0.92531502 11.7101
-3.10391 0.86275703 11.8233
-3.14464 0.94013101 11.6882
-3.09776 0.370884 12.0393
-3.0413699 0.37533599 12.0358
-3.1613801 0.91509199 11.7043
-3.0264599 0.369847 12.0538
-3.18297 0.92211998 11.7016
-3.1403201 0.898525 11.7233
-3.1602199 0.89853603 11.7168
-3.0384099 0.64718503 11.9525
-3.0619299 0.3626 12.0421
-3.03774 0.61075699 11.9744
-3.25332 1.19862 11.4788
-3.1176801 0.81029201 11.8289
-3.06739 0.35969499 12.039
-3.03444 0.34134999 12.0527
-3.0209701 0.35610899 12.0603
-3.25349 0.49112299 12.0018
-3.12486 0.78799498 11.8191
-3.13482 0.88283598 11.7392
-3.73627 1.8641 11.0604
-3.06564 0.38431501 12.0356
-3.07458 0.46308199 11.9732
-3.06727 0.37938499 12.0258
-3.03601 0.35818601 12.0391
-2.9839599 0.36112201 12.0794
-3.06234 0.342118 12.0419
-3.02546 0.33864099 12.0856
-3.2002599 0.89511102 11.7158
-3.0393901 0.30268201 12.0904
-3.1916201 0.82775003 11.7362
-3.16394 0.80932099 11.7547
-3.0568099 0.345429 12.0458
-3.09395 0.32727799 12.0687
-3.2108099 0.88453799 11.6995
-3.0825601 0.348528 12.0353
-3.0636301 0.32442501 12.0587
-3.75123 2.12868 10.809
-3.18103 0.80944902 11.7362
-3.2236099 0.85052699 11.7312
-3.0750599 0.423421 11.9951
-3.2256 0.86644 11.7036
-3.24315 0.456736 12.0158
-3.2046399 0.80988598 11.7409
-3.2393401 0.86537999 11.6824
-3.62691 1.99924 10.8922
-3.2353499 0.83332199 11.7362
-3.4593999 1.18171 11.5088
-3.07848 0.647488 11.9293
-3.03421 0.52266002 11.988
-3.37868 0.90483201 11.7026
-3.1900201 0.59215403 11.8846
-3.18224 0.61025703 11.884
-3.19999 0.61039603 11.8822
-3.01999 0.51005697 11.9937
-3.2294099 1.30599 11.5208
-3.0162001 0.58491802 11.9736
-3.0079501 0.48509499 12.0792
-3.01946 0.291675 12.132
-3.19946 0.60916501 11.8819
-3.1192901 0.61019999 11.875
-3.2089601 0.59116602 11.8888
-3.2358999 1.31796 11.4936
-3.0682299 0.293051 12.0947
-3.2125399 1.26298 11.5909
-3.2980101 1.13562 11.4922
-3.1101401 0.297167 12.118
-3.1392601 0.61055398 11.8799
-3.11253 0.40763101 12.0164
-3.3719001 1.6416399 11.2332
-3.76985 2.1621101 10.7942
-3.1389101 0.646752 11.8734
-3.22667 0.59133297 11.8866
-3.1294401 0.59258902 11.8747
-3.17186 0.59233302 11.8821
-3.10869 0.62837899 11.871
-3.15066 0.59234798 11.8845
-3.1289699 0.62848502 11.8757
-3.14956 0.62853497 11.8796
-3.4985199 1.97014 10.9783
-3.1619999 0.61016601 11.8731
-3.1710501 0.62847 11.8769
-3.0659599 0.66861099 11.9109
-3.1132901 0.424373 11.9941
-3.14169 1.0502599 11.6909
-3.1064401 0.27803999 12.1338
-3.3352201 0.845083 11.7456
-3.61166 1.8848701 10.9583
-3.1794701 0.93338799 11.639
-3.1914599 0.92338502 11.6574
-3.10829 0.33705899 12.0614
-3.3605499 1.72217 11.2945
-3.03426 0.704579 11.9597
-3.5262499 2.16377 10.9016
-3.54477 2.0875599 10.8932
-3.5160601 2.1804099 10.9268
-3.51215 2.1684501 10.9529
-3.6070499 1.95476 10.9284
-3.19225 0.57239902 11.8764
-3.2164299 0.57272798 11.8896
-3.2334499 1.05655 11.5595
-3.2032399 1.1811301 11.5994
-3.1159501 0.56194597 11.891
-3.2632699 0.96520799 11.6268
-3.13516 0.56484002 11.9158
-3.1115999 0.95877898 11.753
-3.1098499 0.93273002 11.7592
-3.0651901 0.63352501 11.9427
-3.2384701 0.93921 11.6472
-3.4043801 1.1157 11.5261
-3.2123699 1.00741 11.6074
-3.2139101 0.98142999 11.6049
-3.3803101 1.08302 11.5479
-3.1252699 0.943501 11.7349
-3.48068 1.97726 10.9978
-3.33617 1.12675 11.4942
-3.16557 0.94530201 11.654
-3.1523099 0.956357 11.6768
-3.3958099 1.84554 11.2165
-3.4113801 1.87928 11.1773
-3.4786301 2.00774 11.0058
-3.4716001 1.9867001 11.0225
-3.50384 2.0717499 10.9507
-3.49318 2.0580699 10.9726
-3.0377901 0.76324898 11.9418
-3.51669 2.0518601 10.9271
-3.3445499 1.25894 11.4121
-3.5020101 2.01455 10.9591
-3.4893701 2.0272901 10.981
-3.37256 1.73479 11.2228
-3.3864 1.28181 11.4099
-3.3563001 1.12683 11.5031
-3.13976 0.97028399 11.7021
-3.15341 0.88264298 11.7293
-3.51489 2.08356 10.9273
-3.1374099 0.84665602 11.7461
-3.0973899 0.84809202 11.7694
-3.1256599 0.82722002 11.7466
-3.3704 1.7546099 11.2539
-3.1472499 0.86572498 11.7408
-3.3747599 1.78607 11.2532
-3.19258 0.84533101 11.7266
-2.9960999 0.41279 12.0514
-3.16471 0.86550498 11.7278
-3.43167 1.11771 11.5583
-3.2141099 0.83326602 11.7388
-3.4305699 1.15538 11.5181
-3.2288101 1.31519 11.5499
-3.1277299 1.00181 11.7198
-3.2757599 0.88770401 11.6857
-3.2922299 0.89718902 11.6726
-3.2937601 0.918809 11.6606
-3.2112401 0.81540197 11.7434
-3.6306901 2.04265 10.8643
-3.2928801 0.88033801 11.6939
-3.2040601 0.79082102 11.7664
-3.3802099 1.75133 11.1979
-3.2571001 0.54965502 11.9221
-3.33641 0.88580602 11.697
-3.2430699 0.47586101 12.024
-3.40418 1.09712 11.5409
-3.5163701 2.1477399 10.924
-3.3556399 0.88932198 11.6998
-3.279 0.89852399 11.6612
-3.31424 0.89139199 11.6846
-3.0599899 0.82661402 11.9168
-3.0132899 0.42327699 12.0334
-3.31619 0.87618899 11.7094
-3.2755799 0.85713798 11.7018
-3.19785 0.77509701 11.7682
-3.1185 0.55655003 11.8902
-3.1185 0.55655003 11.8902
-3.1677799 0.86336702 11.7242
-3.2955301 0.850927 11.7186
-3.1168399 0.88699597 11.77
-3.11833 0.541435 11.9367
-3.28213 0.788351 11.7545
-3.0599699 0.82669199 11.9174
-3.0599699 0.82669199 11.9174
-3.35392 1.68522 11.2429
-3.2548399 0.86173302 11.6818
-3.2548399 0.86173302 11.6818
-3.0230601 0.53721398 11.9792
-3.1062 0.90802097 11.7883
-3.5064299 2.10393 10.9526
-3.50366 2.09428 10.9807
-3.52987 2.18487 10.88
-3.0770199 0.57754499 11.8805
-3.1173501 0.52504998 11.9408
-3.27002 0.77276802 11.7728
-3.3122699 0.848028 11.727
-3.0980599 0.648489 11.8862
-3.29476 0.80661398 11.7559
-2.9802799 0.43291 12.1066
-3.30407 0.820189 11.7541
-3.09512 0.56837302 11.8971
-3.0929799 0.88721901 11.7764
-3.36358 1.7195899 11.2464
-3.1250701 0.559093 11.9025
-3.3579199 0.87176597 11.7234
-3.3605599 1.71654 11.2473
-3.09743 0.55208701 11.9364
-3.13449 0.44471499 12.0147
-3.0943699 0.55264401 11.9355
-3.08321 0.870354 11.8583
-3.1052001 0.55542701 11.9439
-3.0771899 0.64740998 11.8823
-3.0004599 0.43880099 12.05
-3.14189 1.01871 11.6949
-3.5159099 2.1171899 10.926
-3.37731 1.2930501 11.3792
-3.4663701 2.0048599 11.0566
-3.4808199 2.03021 11.0471
-3.35128 1.02589 11.5963
-3.1377201 0.550376 11.9564
-3.15043 0.58694398 11.9086
-3.2346399 0.41515899 12.0376
-3.12183 0.86553502 11.7358
-3.11338 0.846322 11.7468
-3.12749 0.45526999 11.9761
-3.0320101 0.495673 12.0006
-3.0641501 0.58816397 11.932
-3.1888399 0.56361198 11.9026
-3.1236899 0.580033 11.8934
-3.03303 0.57249898 11.9724
-3.2005401 0.51677197 11.9353
-3.2005401 0.51677197 11.9353
-3.2005401 0.51677197 11.9353
-3.4670501 1.9555 11.0155
-3.1270001 0.440173 11.9987
-3.1270001 0.440173 11.9987
-3.0497899 0.63147002 11.9561
-3.1289999 0.473423 11.9738
-3.0866699 0.47525901 11.9701
-3.1705799 0.47398901 11.9786
-3.45259 1.12912 11.5215
-3.1659 0.56987298 11.906
-3.2760799 0.52064902 11.9948
-3.15166 0.466966 11.9932
-3.0272 0.55525798 11.9817
-3.18557 0.54223001 11.9077
-3.11658 0.57427299 11.9089
-3.5699699 1.97912 10.9448
-3.10974 0.468422 11.9865
-3.15049 0.48164701 11.9566
-3.2270999 0.52906299 11.9326
-3.0862601 0.458992 11.9829
-3.01788 0.520163 12.0615
-3.14693 0.44379601 11.9948
-3.5903101 2.23733 10.7875
-3.56971 2.2494299 10.8363
-3.5399001 2.1983399 10.8508
-3.1698999 0.437866 12.0064
-3.0093 0.63614601 12.0195
-3.0188899 0.54739302 12.0374
-3.55898 2.2421601 10.854
-3.0115299 0.52970499 12.0464
-3.3840301 1.14003 11.4987
-3.45192 1.91382 11.0295
-3.01559 0.55281699 12.018
-3.4296601 1.13351 11.5089
-3.5997701 2.34411 10.8007
-2.9765899 0.45523801 12.0938
-3.27265 1.36269 11.4329
-3.0813799 0.91441798 11.8173
-3.28495 0.93096298 11.6288
-3.2627499 0.57730597 11.919
-3.3749399 1.76671 11.2235
-3.27035 0.913288 11.6337
-3.3224399 0.981507 11.6314
-2.96457 0.445059 12.1213
-3.5583501 2.2642 10.8961
-3.2433701 0.797916 11.7447
-3.22545 0.80944997 11.7369
-3.21649 0.79406297 11.7501
-3.2202499 0.832452 11.7347
-3.23154 0.81461799 11.7366
-3.46106 1.97171 11.0594
-3.2304599 0.77351803 11.7284
-3.0239799 0.45595399 12.0226
-3.5876701 2.3007901 10.7919
-3.19451 0.791583 11.7452
-3.1219299 0.90170002 11.7392
-3.22138 0.79472899 11.7366
-3.25106 0.80598998 11.7446
-3.2608399 0.78885901 11.754
-3.13728 0.89705801 11.7182
-3.0304301 0.433667 12.015
-3.05615 0.41778299 12.0083
-3.2690001 0.72184902 11.7836
-3.01653 0.43758401 12.0299
-3.04706 0.57545102 11.9536
-3.00559 0.455742 12.0326
-3.1694 0.59270602 11.8812
-3.1201601 0.65875101 11.8768
-3.0875001 0.68653601 11.881
-3.1230099 0.82810801 11.8187
-3.6529601 2.08552 10.8038
-3.0869801 0.66836601 11.8891
-3.07092 0.68854302 11.8935
-3.0839601 0.44220299 12.0117
-3.0090499 0.59446102 12.036
-3.02055 0.61819202 11.9896
-3.05106 0.74063301 11.8952
-3.05723 0.70953202 11.9007
-3.12152 0.67532301 11.8554
-3.54092 2.1507101 10.8777
-3.5366299 2.21984 10.8802
-3.0419199 0.69790298 11.9152
-3.01261 0.56875801 11.9721
-3.10378 0.67268902 11.8787
-3.0762 0.704503 11.8807
-3.06709 0.73238802 11.8909
-3.0741999 0.73609102 11.8527
-3.0787899 0.60760403 11.9239
-3.10373 0.65580899 11.891
-3.0734899 0.69820201 11.8875
-3.1640501 0.571383 11.9129
-3.1213 0.49316999 11.9776
-3.04018 0.71912199 11.908
-3.5729101 2.28286 10.8522
-3.58022 2.28829 10.8389
-3.4447501 1.93137 11.0554
-3.2634201 0.98282301 11.6122
-3.0364699 0.63977802 11.982
-3.02544 0.68824202 11.9698
-3.0311401 0.66617399 11.9811
-3.5380599 2.26141 10.944
-3.5334799 2.2425499 10.9124
-3.03598 0.32595199 12.0654
-3.01932 0.649997 11.996
-3.3612001 1.15877 11.4741
-3.67979 2.0654199 10.8128
-3.5141301 2.1392601 10.9559
-3.01754 0.65045899 11.9968
-3.3842001 1.77346 11.192
-3.0177701 0.61204398 12.0193
-3.56194 2.26684 10.886
-3.0478201 0.27222899 12.1309
-3.2851501 0.57719898 11.9271
-3.0235801 0.286423 12.0834
-3.54129 2.22842 10.9399
-3.43818 1.94996 11.0848
-3.0843401 0.24560601 12.1511
-3.4645901 1.99694 11.0951
-3.3915601 1.78781 11.1696
-3.0620301 0.25516 12.1398
-3.3434601 0.93031102 11.6741
-3.0024099 0.49385101 12.0839
-3.3913701 1.81003 11.1999
-3.0659699 0.300589 12.0932
-3.4893701 2.04807 11.0118
-3.07497 0.23783 12.1524
-3.3833101 1.80074 11.2255
-3.09515 0.85391098 11.8264
-3.50965 2.1288199 10.9823
-2.97175 0.32396299 12.1744
-3.0950799 0.31100401 12.1132
-3.3358901 0.94955701 11.6622
-2.9820499 0.41039601 12.116
-2.9811499 0.265789 12.2035
-3.40693 1.86461 11.1991
-2.9804599 0.24401399 12.2199
-2.9530599 0.195188 12.2108
-3.3301201 0.91124398 11.6846
-3.0427101 0.25350401 12.1546
-2.94151 0.230506 12.2307
-2.9716499 0.39870799 12.1355
-3.0825 0.24504501 12.1484
-3.0285499 0.27903199 12.1428
-2.9601901 0.38943201 12.1624
-3.44946 1.10302 11.5842
-3.36167 1.09782 11.5061
-2.97279 0.33423999 12.1165
-3.0336101 0.250994 12.1614
-3.5955999 2.27685 10.7332
-3.5920401 2.25631 10.7644
-2.98053 0.27174601 12.1948
-3.3226099 0.92913198 11.6609
-3.0114701 0.187051 12.1982
-3.6084599 2.2524099 10.7367
-3.3695199 1.704 11.2224
-3.6082301 2.2339799 10.766
-3.07809 0.73732603 11.8485
-3.07809 0.73732603 11.8485
-3.15891 0.33057401 12.0562
-3.0553501 0.79657799 11.9216
-3.26004 0.74149901 11.7906
-3.2393799 0.882801 11.6521
-3.40049 1.80699 11.1643
-3.4217701 1.9112999 11.1549
-3.42904 1.9468 11.1516
-3.4093201 1.84194 11.1665
-3.0896599 0.83578199 11.8538
-3.4417701 1.96893 11.1192
-3.5252199 2.2045701 10.9868
-3.3701 1.74893 11.2619
-3.5755501 2.26229 10.8105
-3.2583399 0.90346599 11.6502
-3.5940101 2.32283 10.7576
-3.60835 2.3784399 10.7214
-3.35741 1.17928 11.4711
-3.71455 2.20011 10.7603
-3.60164 2.3497 10.7602
