ply
format ascii 1.0
comment PCL generated
element vertex 317
property float x
property float y
property float z
element camera 1
property float view_px
property float view_py
property float view_pz
property float x_axisx
property float x_axisy
property float x_axisz
property float y_axisx
property float y_axisy
property float y_axisz
property float z_axisx
property float z_axisy
property float z_axisz
property float focal
property float scalex
property float scaley
property float centerx
property float centery
property int viewportx
property int viewporty
property float k1
property float k2
end_header
6.1581402 -4.32654 -1.81443
3.1024699 0.28366399 1.0774601
3.1024599 0.28620499 1.07728
4.6410799 -1.8116699 -0.97109699
6.2899899 -4.28018 -1.47709
6.2883301 -4.2718501 -1.47613
4.7848401 -1.77841 -0.96148002
4.7909098 -1.77832 -0.96875203
4.7562599 0.145503 0.53907901
4.7644 0.141726 0.52885598
4.6956301 0.124097 0.511168
4.7019701 0.129235 0.499336
4.6805601 -1.75086 -0.93681502
4.6784101 -1.73867 -0.94549602
4.7020102 0.13598301 0.58579201
4.70859 0.140955 0.57205099
4.0806298 0.25319701 0.68474603
5.9247699 -3.7165101 -1.65713
3.92713 1.49861 1.67696
3.9289601 1.47595 1.693
4.9609699 -0.426393 0.173639
4.8070302 -0.366584 0.18950599
4.7986598 -0.388612 0.173807
4.60922 -1.74572 -0.944269
4.98037 -1.07056 -0.30241901
4.6329699 0.95145702 1.20215
4.7937899 -0.43243101 0.130136
5.5690799 -3.1296999 -1.64087
4.8856502 -0.658297 -0.025327301
4.8264399 -0.684259 -0.050656501
4.7318201 -0.39181101 0.143857
4.88556 -0.71461701 -0.066139102
5.0150199 -1.0356899 -0.248963
4.65975 0.73453701 1.0139
4.5106702 -0.79224998 -0.183566
4.5015998 -0.75710201 -0.15690701
5.0093899 -0.90629101 -0.141488
4.6458602 0.215794 0.64696002
4.7004299 0.24744301 0.67263198
4.77384 -0.25853401 0.28027901
4.3701301 1.74605 1.83131
4.6559701 0.79301602 1.0557899
4.6635499 0.841775 1.09736
4.6238098 0.83950597 1.13177
4.7948899 -0.218291 0.30341399
5.12006 -1.79478 -0.78946197
5.1168699 -1.75149 -0.76010799
4.27774 1.03847 1.23127
4.3291101 1.04601 1.24547
6.2844701 -4.37327 -1.57749
3.1773701 0.290672 1.03474
4.7755799 -0.31726301 0.227715
3.93625 0.26851401 0.67336702
3.9295399 0.330172 0.73881
5.8667302 -3.70104 -1.74985
5.83109 -3.6868701 -1.7922
3.9939201 0.85787201 1.1486501
4.0961299 -0.059663199 0.43868601
4.27354 0.97209603 1.2093
4.3291402 0.99069202 1.2000901
4.5387502 0.028452 0.413371
4.48283 0.0040924801 0.41299599
4.5237198 2.08881 2.12694
4.4809299 0.038351301 0.46587601
4.0362201 -0.47702801 0.098236099
4.4484701 0.57280099 0.85696697
3.96596 -0.50043201 0.067129202
4.4549799 -0.417712 0.083002999
4.45012 -0.47461599 0.052265201
4.51893 2.3311901 2.2888501
4.5028901 2.3219299 2.22646
4.5627799 1.86317 1.88633
3.16728 0.213671 0.97546399
3.1526 0.15593401 0.947963
4.3478198 2.5564699 2.4454
5.0095 -0.95619601 -0.185332
5.1793199 -1.9009399 -0.889938
4.2225399 2.6362 2.51316
4.5370998 0.061793301 0.49620301
4.8860798 -0.77036399 -0.108542
4.7989101 -1.62067 -0.802598
4.85776 -1.59192 -0.784908
4.85811 -1.64248 -0.830396
4.1072698 -0.41791299 0.087540098
4.0343199 1.16407 1.3953201
4.8348899 -0.28992501 0.248556
4.0109801 -0.59523302 0.0206163
4.16575 -0.332553 0.1424
3.6782999 1.07131 1.42205
4.87709 -0.22832499 0.313501
4.8841801 -0.91202599 -0.225086
6.2216802 -4.3962002 -1.66686
6.2116799 -4.32797 -1.66107
4.7992001 -1.6636 -0.85993898
3.9951301 0.89367998 1.20797
5.9471302 -3.8097799 -1.71447
4.4196301 0.0110308 0.44822401
4.82687 0.102955 0.50554901
4.7666602 0.069601901 0.49573201
4.3401899 1.84035 1.8682899
3.86782 0.87777603 1.21294
5.1585102 -1.83236 -0.83380598
4.0443201 -0.63825101 -0.023122801
5.1205201 -1.50801 -0.594868
5.1634998 -1.54298 -0.637393
4.46702 1.25552 1.45131
4.0727501 1.06173 1.26449
4.1321502 1.02593 1.2558399
5.0439801 -2.0977499 -1.13425
4.51057 1.1727901 1.39574
4.4152899 -0.56899101 -0.031281099
4.4774799 -0.54169601 -0.0129316
6.1581502 -4.2722101 -1.76948
4.6743302 -0.26716799 0.250009
4.1065402 -0.34921199 0.103935
3.8678 0.930547 1.26526
4.3934999 0.46016601 0.80660802
4.3328099 0.49153 0.82500398
4.6935 0.96786201 1.2404799
4.0343099 -0.148771 0.29200199
5.4505701 -2.9412501 -1.5656199
4.75317 -1.73278 -0.91357702
3.9676099 -0.457064 0.124676
5.1745701 -1.6513 -0.69362903
4.60672 -0.22954001 0.25232801
4.5711398 1.2203 1.38687
5.0293198 -1.51486 -0.63971502
3.9489501 -0.38938001 0.14522301
5.1830902 -1.50702 -0.556692
4.2069201 0.77591699 1.02247
4.11797 0.81184202 1.05708
5.9980602 -3.89972 -1.7257
4.8942399 0.158262 0.58639997
5.1328702 -1.58946 -0.69059902
4.8963199 0.0840813 0.55256099
4.5144901 -0.84449703 -0.237058
4.1058798 0.93516803 1.2230099
3.99102 1.10306 1.38886
5.21172 -1.59961 -0.64949203
4.2843599 1.08331 1.29339
3.86696 2.0015299 2.10572
4.1332302 1.08034 1.30934
4.0739598 1.73725 1.86742
5.08883 -1.66161 -0.76524597
4.7603598 -0.93470597 -0.29777199
4.0529199 -0.699494 -0.069665998
3.98756 0.42065901 0.84252799
3.8849001 -0.076851398 0.38368401
3.95507 -0.078741796 0.416704
3.9193101 -0.16789 0.38092399
3.8986599 -0.207747 0.31757599
4.0394702 -0.36848301 0.202124
4.3755298 2.30211 2.29371
4.0009599 1.58006 1.77779
5.1690502 -1.38854 -0.51272303
4.2006202 2.17788 2.2348399
3.6401501 1.39331 1.7131
3.9877901 0.48734 0.88953
3.9171 0.458377 0.86065602
4.0034199 1.39859 1.59385
4.0733399 1.43007 1.6222301
4.3724198 2.41941 2.33197
3.2708299 -0.20223901 0.61434102
3.10289 0.20076001 1.07999
4.9675598 -1.8435301 -0.87865698
3.22667 0.172829 0.90422201
3.2419 0.252121 0.92374098
3.9988101 1.52591 1.70928
3.9993801 1.4717799 1.6444401
4.2939701 2.1937001 2.15189
4.44207 -0.335861 0.100799
3.73892 2.15978 2.2957201
6.2853799 -3.9087501 -1.20897
3.6973701 2.5555 2.64695
4.0050902 1.33325 1.52617
4.3480601 1.9013799 1.95169
5.9307799 -3.87219 -1.80803
3.9235401 1.57304 1.72702
3.9960699 2.0095 2.1194401
4.3313999 1.6171401 1.7260799
3.66014 0.118756 0.62857503
3.8577001 0.105774 0.56094497
3.6828301 2.4356799 2.5345099
4.0262098 1.84235 1.97183
3.93732 1.8444 1.97679
4.27143 1.94022 1.98236
4.1833501 2.0252099 2.09988
4.24897 2.1096599 2.1087401
5.0479898 -1.71719 -0.82395899
4.0780001 1.89308 2.0262899
4.3484101 1.54825 1.66617
5.4499402 -2.91608 -1.47755
3.91608 1.67918 1.8126301
4.36765 1.48169 1.60446
5.0177302 -1.62272 -0.81264299
3.99616 1.68464 1.86658
3.9906199 1.93735 2.0579801
5.8808699 -3.7829001 -1.79703
5.35675 -3.94331 -2.3673799
3.79528 0.0086925104 0.52966702
3.03462 0.35040501 1.17249
6.1422501 -4.1946402 -1.69612
5.7874398 -4.0359402 -2.0283
4.5215902 2.2111399 2.2260799
6.3638601 -4.81847 -1.79638
2.90031 0.24022 1.26703
6.07515 -4.1412501 -1.8279901
5.0690598 -2.0225301 -1.02448
5.0690598 -2.0225301 -1.02448
4.8741698 0.383661 0.784576
4.2277098 2.38885 2.31937
6.00143 -4.06283 -1.86279
5.8636098 -3.9384501 -1.96619
5.9380202 -4.0346198 -1.96148
5.5864701 0.39524901 1.14501
6.3385701 -4.1610098 -1.40412
5.97225 -4.2554598 -1.95066
6.0493398 -4.0100498 -1.70634
5.9691701 -4.31955 -2.0511
5.9691701 -4.31955 -2.0511
5.5115099 -3.74297 -2.0761001
5.08916 -1.84457 -0.82602698
5.1510601 -1.85493 -0.84572798
5.4545999 -3.1814401 -1.73305
5.53338 -3.19417 -1.6767499
5.1268902 -1.90127 -0.84493399
5.0250502 -2.0030799 -1.08246
5.3110499 -3.26232 -1.89698
5.3116999 -3.26161 -1.89772
5.68926 -3.9231901 -2.0530901
5.1503801 -2.33444 -1.22563
5.1027498 -2.2027199 -1.19577
5.7600598 -3.82691 -1.99818
5.8084602 -3.7685399 -1.8660901
5.2093201 -2.5143399 -1.36356
5.3803401 -2.9365799 -1.6103899
5.4066701 -3.0834301 -1.67779
5.3741398 -3.1124301 -1.73953
5.37252 -3.11203 -1.74062
5.2296 -3.17168 -1.83692
5.2287998 -3.1714699 -1.8366899
5.4074202 -3.0092299 -1.66166
5.4904299 -3.1180899 -1.69866
5.3726001 -3.16874 -1.7797101
5.3742299 -3.1691401 -1.77865
5.4158802 -3.24564 -1.76898
5.4179902 -3.2337101 -1.7836
5.3434601 -3.2060499 -1.84763
5.3447299 -3.2070999 -1.84637
5.4967499 -3.24156 -1.73919
5.7404499 -3.7118499 -1.86975
5.0443401 -2.31356 -1.29734
6.3761601 -4.4454298 -1.4881999
5.7494602 -3.9568901 -2.0763099
6.3529701 -4.47153 -1.5519
6.3529701 -4.47153 -1.5519
5.68753 -3.9654701 -2.12079
5.3461599 -3.0713301 -1.73111
5.33709 -3.0571799 -1.71663
5.88059 -3.8973 -1.8650399
5.3133602 -3.1219499 -1.78465
5.31494 -3.1211901 -1.78517
5.26754 -3.233 -1.8509099
5.2666001 -3.2323899 -1.85132
6.3794699 -4.4653702 -1.45672
4.9786301 -1.94899 -1.06706
5.26193 -3.0746601 -1.7716399
4.6638598 -2.3229001 -1.40396
6.3530798 -4.4720001 -1.55152
5.4489298 -3.7407 -2.13429
6.2983098 -4.3962002 -1.57451
5.5856299 -0.110701 0.69812202
6.2413402 -5.0611501 -2.1826
4.7932401 -2.07849 -1.17893
5.5847502 -0.0142063 0.80116999
5.4492602 -3.7887399 -2.1846299
4.8350501 -1.93788 -1.01499
5.5865998 0.086448401 0.90330601
5.5878 0.18914101 0.98858798
5.5866699 0.29086 1.05428
5.2030301 -3.0473199 -1.75123
5.5736098 -3.7401299 -2.02315
5.1975899 -3.2074299 -1.89149
5.1967101 -3.20717 -1.89107
5.20296 -3.1052699 -1.78746
5.65236 -3.5898099 -1.8431
5.5111299 -3.8258901 -2.19296
5.0324302 -2.2844501 -1.23148
5.6022 -3.38796 -1.77907
4.9686098 -1.86796 -0.96022701
4.9903202 -2.3312399 -1.25491
4.7632899 -2.0016899 -1.1145
5.8178501 -3.6054201 -1.6837699
6.1704202 -4.4701099 -1.90458
6.4302602 -4.8598099 -1.67656
6.3027701 -4.5492301 -1.71232
6.22159 -4.44766 -1.71606
6.3741102 -4.7651 -1.6867599
6.3666 -4.5935402 -1.59147
5.6855898 -3.7421701 -1.89948
6.2677202 -4.6419301 -1.90221
5.3010898 -2.73592 -1.46881
6.4689999 -4.5787601 -1.2774
5.73141 -3.64552 -1.8207901
5.90587 -4.0976501 -2.02355
6.2245302 -4.4057698 -1.77282
6.3038001 -4.60991 -1.78079
6.3038001 -4.60991 -1.78079
6.3674402 -4.6691999 -1.64149
6.4369502 -4.77599 -1.60519
6.158 -4.3749399 -1.86698
6.23349 -4.5262299 -1.76437
5.1690502 -2.99542 -1.72146
5.6340599 -3.51423 -1.83564
6.1710701 -4.3832698 -1.89157
6.0117898 -4.1385798 -1.96699
6.21313 -4.5195498 -1.90337
0 0 0 1 0 0 0 0.5 0 0 0 0.5 0 0 0 0 0 317 1 0 0
