# .PCD v0.7 - Point Cloud Data file format
VERSION 0.7
FIELDS x y z
SIZE 4 4 4
TYPE F F F
COUNT 1 1 1
WIDTH 107
HEIGHT 1
VIEWPOINT 0 0 0 0 0.5 0 0
POINTS 107
DATA ascii
-3.3338399 1.44897 11.3239
-3.3336501 1.4488699 11.3237
-3.34021 1.4663 11.3134
-3.3404901 1.46632 11.3133
-3.3253 1.41733 11.3472
-3.3252399 1.41738 11.3476
-3.3120301 1.40124 11.3634
-3.3122699 1.40069 11.3633
-3.3283801 1.43283 11.3356
-3.3278899 1.43246 11.3353
-3.3345599 1.44909 11.3236
-3.3127201 1.39794 11.3632
-3.3132601 1.39737 11.3629
-3.30387 1.38245 11.3791
-3.3045199 1.3819799 11.3788
-3.3238001 1.41729 11.348
-3.3224699 1.41635 11.347
-3.3566999 1.51688 11.2794
-3.3545301 1.51545 11.2788
-3.32285 1.41324 11.3469
-3.4532599 1.75201 11.0958
-3.4498999 1.75629 11.0975
-3.2210901 1.11099 11.5401
-3.23001 1.11339 11.5444
-3.39765 1.67969 11.1775
-3.4009299 1.68033 11.1648
-3.29831 1.28205 11.4097
-3.2838299 1.29441 11.4277
-3.4156401 1.72111 11.1374
-3.4065499 1.72466 11.1475
-3.1935401 0.992019 11.6073
-3.21222 1.06941 11.5593
-3.2829001 1.26779 11.4274
-3.1903701 1.01921 11.609
-3.17838 0.97663498 11.6282
-3.1805501 1.0051399 11.6286
-3.21366 1.09813 11.5595
-3.38592 1.61809 11.2158
-3.3754301 1.61124 11.2245
-3.34552 1.48291 11.3022
-3.2704401 1.22444 11.4708
-3.37746 1.58403 11.2281
-3.38662 1.59979 11.2127
-3.36535 1.5304199 11.2614
-3.3489299 1.49844 11.2903
-3.30178 1.34501 11.3945
-3.3594501 1.55471 11.2617
-3.48403 1.9468 10.9955
-3.4196899 1.67275 11.1485
-3.41026 1.6966701 11.148
-3.41116 1.65688 11.1656
-3.29006 1.32329 11.4183
-3.4507699 1.79544 11.0821
-3.2417099 1.1582 11.528
-3.46596 1.86659 11.0291
-3.4642701 1.8292201 11.0443
-3.4749601 1.84742 11.0278
-3.4572001 1.8539799 11.0449
-3.4604199 1.77135 11.0799
-3.4247999 1.7004499 11.1364
-3.4570301 1.8125499 11.0635
-3.4421 1.77511 11.0971
-3.4232199 1.73864 11.1251
-3.44906 1.83635 11.0636
-3.43191 1.71691 11.1238
-3.44204 1.73692 11.1107
-3.40115 1.6546 11.1817
-3.43208 1.7586499 11.1127
-3.3938401 1.63578 11.1985
-3.41184 1.63074 11.1806
-3.1724999 0.91981298 11.6606
-3.4814501 1.86474 11.0171
-3.4827399 1.90826 11.0109
-3.14592 0.82712197 11.7385
-3.13538 0.80820698 11.7414
-3.4633901 1.89025 11.0316
-3.14748 0.82744098 11.7415
-3.5392799 2.16608 10.849
-3.5395601 2.1015301 10.8715
-3.49931 1.9844 10.9573
-3.20473 0.98198301 11.6081
-3.5588901 2.1817901 10.8284
-3.55515 2.21099 10.8261
-3.5323901 2.0669301 10.9064
-3.1399601 0.77431703 11.8344
-3.1558001 0.930305 11.6743
-3.1455801 0.78631502 11.8191
-3.25332 1.19862 11.4788
-3.4985199 1.97014 10.9783
-3.1794701 0.93338799 11.639
-3.1196401 0.72134501 11.8697
-3.1196401 0.72134501 11.8697
-3.1196401 0.72134501 11.8697
-3.1196401 0.72134501 11.8697
-3.19367 0.96583402 11.6011
-3.16557 0.94530201 11.654
-3.51669 2.0518601 10.9271
-3.1132801 0.80679601 11.7449
-3.1480501 0.797656 11.8038
-3.03984 0.47485301 11.9512
-3.11426 0.709925 11.8657
-3.10378 0.67268902 11.8787
-3.00102 0.26813099 12.1783
-2.9804599 0.24401399 12.2199
-2.9530599 0.195188 12.2108
-3.0029299 0.24887399 12.1943
-2.9907899 0.22596 12.2077
